ply
format ascii 1.0
element vertex 640
property float x
property float y
property float z
property uchar red
property uchar green
property uchar blue
property float size
end_header
0.6492900039945882 0.11412099281897518 0.902983018586982 144 238 144 0.5
0.6493214437392519 0.11411592195614499 0.9030436615257821 144 238 144 0.5
0.6493534477203777 0.11411060409305132 0.9031037187753157 144 238 144 0.5
0.6493860315347812 0.11410503158784835 0.9031631296049425 144 238 144 0.5
0.6494192107792784 0.11409919679869038 0.9032218332840227 144 238 144 0.5
0.6494530010506853 0.1140930920837316 0.9032797690819165 144 238 144 0.5
0.6494874179458174 0.1140867098011263 0.9033368762679843 144 238 144 0.5
0.6495224770614909 0.11408004230902867 0.9033930941115862 144 238 144 0.5
0.6495581939945216 0.11407308196559295 0.9034483618820819 144 238 144 0.5
0.6495945843417255 0.11406582112897341 0.9035026188488322 144 238 144 0.5
0.6496316636999182 0.11405825215732426 0.9035558042811969 144 238 144 0.5
0.6496694476659157 0.11405036740879973 0.9036078574485362 144 238 144 0.5
0.6497079518365341 0.11404215924155407 0.9036587176202105 144 238 144 0.5
0.649747191808589 0.11403362001374152 0.9037083240655798 144 238 144 0.5
0.6497871831788963 0.11402474208351629 0.9037566160540043 144 238 144 0.5
0.6498279415442719 0.11401551780903263 0.9038035328548438 144 238 144 0.5
0.6498694825015319 0.11400593954844482 0.9038490137374593 144 238 144 0.5
0.649911821647492 0.11399599965990702 0.9038929979712101 144 238 144 0.5
0.649954974578968 0.11398569050157353 0.903935424825457 144 238 144 0.5
0.649998956892776 0.11397500443159855 0.9039762335695599 144 238 144 0.5
0.6500437841857317 0.11396393380813633 0.9040153634728789 144 238 144 0.5
0.650089472054651 0.1139524709893411 0.9040527538047745 144 238 144 0.5
0.6501360360963498 0.11394060833336708 0.9040883438346065 144 238 144 0.5
0.6501834919076441 0.11392833819836856 0.9041220728317351 144 238 144 0.5
0.6502318550853496 0.11391565294249971 0.9041538800655204 144 238 144 0.5
0.6502811412262824 0.11390254492391484 0.9041837048053231 144 238 144 0.5
0.650331365927258 0.11388900650076811 0.9042114863205029 144 238 144 0.5
0.6503825447850926 0.11387503003121377 0.9042371638804199 144 238 144 0.5
0.6504346933966021 0.11386060787340613 0.9042606767544346 144 238 144 0.5
0.6504878273586023 0.11384573238549935 0.9042819642119069 144 238 144 0.5
0.650541962267909 0.11383039592564768 0.9043009655221972 144 238 144 0.5
0.650597113360795 0.11381459101787117 0.9043176210396279 144 238 144 0.5
0.6506532816726592 0.11379831671921968 0.9043319138524155 144 238 144 0.5
0.6507104496838605 0.11378158062288199 0.90434388288542 144 238 144 0.5
0.6507685986238092 0.11376439089753833 0.9043535708279095 144 238 144 0.5
0.6508277097219162 0.11374675571186896 0.9043610203691519 144 238 144 0.5
0.6508877642075918 0.11372868323455407 0.9043662741984151 144 238 144 0.5
0.650948743310247 0.1137101816342739 0.9043693750049674 144 238 144 0.5
0.6510106282592922 0.11369125907970869 0.9043703654780766 144 238 144 0.5
0.651073400284138 0.11367192373953862 0.9043692883070102 144 238 144 0.5
0.6511370406141952 0.11365218378244395 0.904366186181037 144 238 144 0.5
0.6512015304788742 0.11363204737710486 0.9043611017894241 144 238 144 0.5
0.651266851107586 0.11361152269220162 0.9043540778214402 144 238 144 0.5
0.6513329837297409 0.11359061789641442 0.9043451569663526 144 238 144 0.5
0.6513999095747498 0.1135693411584235 0.9043343819134299 144 238 144 0.5
0.6514676098720229 0.1135477006469091 0.9043217953519397 144 238 144 0.5
0.6515360658509712 0.11352570453055144 0.90430743997115 144 238 144 0.5
0.6516052587410051 0.1135033609780307 0.9042913584603285 144 238 144 0.5
0.6516751697715354 0.11348067815802715 0.9042735935087437 144 238 144 0.5
0.6517457801719727 0.113457664239221 0.9042541878056632 144 238 144 0.5
0.6518170711717274 0.11343432739029244 0.9042331840403554 144 238 144 0.5
0.6518890240002106 0.11341067577992178 0.9042106249020876 144 238 144 0.5
0.6519616198868325 0.11338671757678913 0.9041865530801282 144 238 144 0.5
0.6520348400610039 0.11336246094957478 0.904161011263745 144 238 144 0.5
0.6521086657521353 0.11333791406695895 0.9041340421422059 144 238 144 0.5
0.6521830781896377 0.11331308509762188 0.9041056884047793 144 238 144 0.5
0.6522580586029214 0.11328798221024378 0.9040759927407325 144 238 144 0.5
0.6523335882213969 0.11326261357350483 0.904044997839334 144 238 144 0.5
0.6524096482744751 0.11323698735608528 0.9040127463898515 144 238 144 0.5
0.6524862199915666 0.11321111172666538 0.903979281081553 144 238 144 0.5
0.652563284602082 0.1131849948539253 0.9039446446037064 144 238 144 0.5
0.6526408233354319 0.11315864490654536 0.9039088796455801 144 238 144 0.5
0.6527188174210268 0.11313207005320568 0.9038720288964412 144 238 144 0.5
0.6527972480882777 0.11310527846258653 0.9038341350455587 144 238 144 0.5
0.6528760965665948 0.11307827830336811 0.9037952407821996 144 238 144 0.5
0.6529553440853889 0.1130510777442307 0.9037553887956324 144 238 144 0.5
0.6530349718740707 0.11302368495385445 0.903714621775125 144 238 144 0.5
0.6531149611620509 0.11299610810091965 0.9036729824099454 144 238 144 0.5
0.6531952931787396 0.11296835535410645 0.9036305133893614 144 238 144 0.5
0.6532759491535483 0.11294043488209513 0.9035872574026409 144 238 144 0.5
0.6533569103158869 0.11291235485356592 0.9035432571390523 144 238 144 0.5
0.6534381578951665 0.11288412343719902 0.903498555287863 144 238 144 0.5
0.6535196731207972 0.11285574880167464 0.9034531945383414 144 238 144 0.5
0.6536014372221902 0.11282723911567301 0.9034072175797552 144 238 144 0.5
0.6536834314287557 0.11279860254787437 0.9033606671013724 144 238 144 0.5
0.6537656369699045 0.11276984726695892 0.9033135857924609 144 238 144 0.5
0.6538480350750472 0.11274098144160691 0.903266016342289 144 238 144 0.5
0.6539306069735947 0.11271201324049855 0.9032180014401245 144 238 144 0.5
0.6540133338949572 0.11268295083231408 0.903169583775235 144 238 144 0.5
0.6540961970685456 0.11265380238573369 0.903120806036889 144 238 144 0.5
0.6541791777237702 0.11262457606943764 0.9030717109143541 144 238 144 0.5
0.6542622570900422 0.11259528005210612 0.9030223410968985 144 238 144 0.5
0.6543454163967717 0.11256592250241938 0.9029727392737901 144 238 144 0.5
0.6544286368733696 0.11253651158905759 0.9029229481342964 144 238 144 0.5
0.6545118997492465 0.11250705548070103 0.9028730103676861 144 238 144 0.5
0.6545951862538127 0.11247756234602993 0.9028229686632266 144 238 144 0.5
0.6546784776164795 0.11244804035372452 0.9027728657101864 144 238 144 0.5
0.6547617550666568 0.11241849767246495 0.9027227441978329 144 238 144 0.5
0.6548449998337557 0.11238894247093151 0.9026726468154345 144 238 144 0.5
0.6549281931471866 0.11235938291780438 0.9026226162522587 144 238 144 0.5
0.6550113162363603 0.11232982718176383 0.902572695197574 144 238 144 0.5
0.6550943503306874 0.11230028343149005 0.902522926340648 144 238 144 0.5
0.6551772766595785 0.11227075983566331 0.902473352370749 144 238 144 0.5
0.655260076452444 0.11224126456296375 0.9024240159771443 144 238 144 0.5
0.6553427309386949 0.11221180578207166 0.9023749598491027 144 238 144 0.5
0.6554252213477416 0.11218239166166724 0.9023262266758914 144 238 144 0.5
0.6555075289089948 0.11215303037043073 0.9022778591467789 144 238 144 0.5
0.655589634851865 0.11212373007704232 0.9022298999510328 144 238 144 0.5
0.6556715204057632 0.11209449895018225 0.9021823917779214 144 238 144 0.5
0.6557531668000997 0.11206534515853077 0.9021353773167126 144 238 144 0.5
0.655834555264285 0.11203627687076805 0.9020888992566738 144 238 144 0.5
0.65591566702773 0.11200730225557433 0.9020430002870735 144 238 144 0.5
0.6559964833198453 0.11197842948162988 0.9019977230971798 144 238 144 0.5
0.6560769853700417 0.11194966671761489 0.9019531103762606 144 238 144 0.5
0.6561571544077294 0.1119210221322096 0.9019092048135835 144 238 144 0.5
0.6562369716623191 0.11189250389409418 0.9018660490984165 144 238 144 0.5
0.6563164183632217 0.11186412017194891 0.901823685920028 144 238 144 0.5
0.6563954757398477 0.11183587913445397 0.9017821579676856 144 238 144 0.5
0.6564741250216078 0.11180778895028967 0.9017415079306574 144 238 144 0.5
0.6565523474379125 0.11177985778813612 0.9017017784982112 144 238 144 0.5
0.6566301242181725 0.1117520938166736 0.901663012359615 144 238 144 0.5
0.6567074365917984 0.11172450520458231 0.9016252522041371 144 238 144 0.5
0.6567842657882007 0.11169710012054251 0.901588540721045 144 238 144 0.5
0.6568605930367902 0.1116698867332344 0.9015529205996069 144 238 144 0.5
0.6569363995669777 0.11164287321133821 0.9015184345290908 144 238 144 0.5
0.6570116666081735 0.11161606772353416 0.9014851251987643 144 238 144 0.5
0.6570863753897883 0.11158947843850249 0.901453035297896 144 238 144 0.5
0.6571605071412326 0.11156311352492339 0.9014222075157531 144 238 144 0.5
0.6572340430919177 0.11153698115147712 0.9013926845416043 144 238 144 0.5
0.6573069644712534 0.11151108948684385 0.9013645090647171 144 238 144 0.5
0.6573792525086508 0.11148544669970388 0.9013377237743598 144 238 144 0.5
0.6574508884335203 0.11146006095873737 0.9013123713597999 144 238 144 0.5
0.6575218534752727 0.11143494043262454 0.9012884945103056 144 238 144 0.5
0.6575921288633184 0.11141009329004564 0.9012661359151449 144 238 144 0.5
0.6576616958270682 0.11138552769968091 0.9012453382635858 144 238 144 0.5
0.6577305355959329 0.11136125183021059 0.9012261442448962 144 238 144 0.5
0.6577986293993227 0.11133727385031483 0.901208596548344 144 238 144 0.5
0.6578659584666484 0.1113136019286739 0.9011927378631971 144 238 144 0.5
0.657932504027321 0.11129024423396801 0.9011786108787239 144 238 144 0.5
0.6579982473107505 0.1112672089348774 0.901166258284192 144 238 144 0.5
0.6580631695463479 0.11124450420008226 0.9011557227688691 144 238 144 0.5
0.658127251963524 0.11122213819826289 0.9011470470220238 144 238 144 0.5
0.6581904793082453 0.11120011761637033 0.9011402644496481 144 238 144 0.5
0.658252858458692 0.1111784398157711 0.9011353500314186 144 238 144 0.5
0.6583144048817757 0.11115709853890104 0.9011322560738186 144 238 144 0.5
0.6583751340633597 0.11113608752021054 0.9011309348333011 144 238 144 0.5
0.6584350614893066 0.11111540049414997 0.9011313385663191 144 238 144 0.5
0.6584942026454804 0.11109503119516977 0.9011334195293257 144 238 144 0.5
0.658552573017744 0.11107497335772033 0.9011371299787742 144 238 144 0.5
0.6586101880919604 0.11105522071625205 0.9011424221711175 144 238 144 0.5
0.658667063353993 0.11103576700521536 0.9011492483628089 144 238 144 0.5
0.658723214289705 0.11101660595906064 0.9011575608103012 144 238 144 0.5
0.6587786563849597 0.11099773131223829 0.9011673117700479 144 238 144 0.5
0.6588334051256202 0.11097913679919873 0.9011784534985017 144 238 144 0.5
0.6588874759975494 0.11096081615439231 0.901190938252116 144 238 144 0.5
0.658940884486611 0.11094276311226955 0.901204718287344 144 238 144 0.5
0.658993646078668 0.11092497140728069 0.9012197458606385 144 238 144 0.5
0.6590457762595834 0.1109074347738763 0.9012359732284527 144 238 144 0.5
0.6590972905152208 0.1108901469465067 0.9012533526472399 144 238 144 0.5
0.659148204331443 0.11087310165962226 0.901271836373453 144 238 144 0.5
0.6591985331941138 0.11085629264767348 0.9012913766635453 144 238 144 0.5
0.6592482925890956 0.11083971364511064 0.9013119257739692 144 238 144 0.5
0.6592974980022523 0.11082335838638424 0.9013334359611789 144 238 144 0.5
0.6593461649194466 0.11080722060594465 0.901355859481627 144 238 144 0.5
0.6593943088265422 0.11079129403824231 0.9013791485917665 144 238 144 0.5
0.6594419452094018 0.11077557241772756 0.9014032555480505 144 238 144 0.5
0.6594890895538889 0.11076004947885082 0.9014281326069321 144 238 144 0.5
0.6595357573458666 0.11074471895606254 0.9014537320248648 144 238 144 0.5
0.6595819640711982 0.11072957458381306 0.9014800060583011 144 238 144 0.5
0.6596277252157469 0.11071461009655283 0.9015069069636946 144 238 144 0.5
0.6596730562653758 0.11069981922873226 0.9015343869974984 144 238 144 0.5
0.6597179727059482 0.11068519571480168 0.9015623984161654 144 238 144 0.5
0.6597624900233272 0.11067073328921155 0.9015908934761486 144 238 144 0.5
0.6598066237033761 0.1106564256864123 0.9016198244339012 144 238 144 0.5
0.659850389231958 0.11064226664085429 0.9016491435458766 144 238 144 0.5
0.6598938020949361 0.11062824988698793 0.9016788030685274 144 238 144 0.5
0.6599368777781738 0.11061436915926362 0.9017087552583072 144 238 144 0.5
0.6599796317675343 0.1106006181921318 0.9017389523716689 144 238 144 0.5
0.6600220795488807 0.11058699072004284 0.9017693466650655 144 238 144 0.5
0.6600642366080759 0.11057348047744713 0.9017998903949501 144 238 144 0.5
0.6601061184309834 0.11056008119879508 0.9018305358177761 144 238 144 0.5
0.6601477405034666 0.1105467866185371 0.9018612351899962 144 238 144 0.5
0.6601891183113884 0.11053359047112361 0.9018919407680638 144 238 144 0.5
0.6602302673406122 0.11052048649100503 0.901922604808432 144 238 144 0.5
0.660271203077001 0.1105074684126317 0.9019531795675537 144 238 144 0.5
0.6603119410064182 0.11049452997045409 0.9019836173018823 144 238 144 0.5
0.6603524966147268 0.11048166489892254 0.9020138702678706 144 238 144 0.5
0.6603928853877903 0.1104688669324875 0.9020438907219721 144 238 144 0.5
0.6604331228114716 0.11045612980559937 0.9020736309206395 144 238 144 0.5
0.660473224371634 0.11044344725270851 0.902103043120326 144 238 144 0.5
0.6605132055541408 0.11043081300826536 0.9021320795774849 144 238 144 0.5
0.6605530818448552 0.11041822080672034 0.9021606925485691 144 238 144 0.5
0.6605928687296402 0.11040566438252379 0.9021888342900317 144 238 144 0.5
0.6606325816943592 0.11039313747012622 0.9022164570583261 144 238 144 0.5
0.6606722362248755 0.11038063380397792 0.9022435131099051 144 238 144 0.5
0.6607118478070517 0.11036814711852933 0.9022699547012218 144 238 144 0.5
0.660751431926752 0.11035567114823092 0.9022957340887298 144 238 144 0.5
0.6607910040698387 0.11034319962753299 0.9023208035288814 144 238 144 0.5
0.6608305797221756 0.110330726290886 0.9023451152781304 144 238 144 0.5
0.6608701743696254 0.11031824487274033 0.9023686215929293 144 238 144 0.5
0.6609098034980517 0.11030574910754644 0.902391274729732 144 238 144 0.5
0.6609494825933179 0.11029323272975468 0.9024130269449911 144 238 144 0.5
0.6609892271412864 0.11028068947381543 0.9024338304951594 144 238 144 0.5
0.6610290526278211 0.11026811307417916 0.9024536376366905 144 238 144 0.5
0.6610689745387849 0.11025549726529625 0.9024724006260376 144 238 144 0.5
0.6611090083600412 0.11024283578161707 0.9024900717196535 144 238 144 0.5
0.661149169577453 0.11023012235759204 0.9025066031739912 144 238 144 0.5
0.6611894736768837 0.11021735072767162 0.9025219472455043 144 238 144 0.5
0.6612299361441965 0.11020451462630614 0.9025360561906453 144 238 144 0.5
0.6612705724652542 0.11019160778794601 0.9025488822658678 144 238 144 0.5
0.6613113981259204 0.11017862394704166 0.9025603777276247 144 238 144 0.5
0.6613524286120587 0.1101655568380435 0.9025704948323692 144 238 144 0.5
0.6613936794095313 0.1101524001954019 0.9025791858365542 144 238 144 0.5
0.661435166004202 0.1101391477535673 0.9025864029966328 144 238 144 0.5
0.661476903881934 0.11012579324699007 0.9025920985690583 144 238 144 0.5
0.6615189085285906 0.11011233041012064 0.9025962248102841 144 238 144 0.5
0.6615611954300344 0.11009875297740936 0.9025987339767625 144 238 144 0.5
0.6616037800721295 0.11008505468330673 0.9025995783249473 144 238 144 0.5
0.6616466779407384 0.11007122926226308 0.9025987101112914 144 238 144 0.5
0.6616899045217246 0.11005727044872883 0.9025960815922479 144 238 144 0.5
0.6617334753009513 0.11004317197715441 0.9025916450242698 144 238 144 0.5
0.6617774057642816 0.11002892758199018 0.9025853526638103 144 238 144 0.5
0.6618217113975787 0.11001453099768654 0.9025771567673226 144 238 144 0.5
0.6618664076867059 0.10999997595869394 0.9025670095912597 144 238 144 0.5
0.6619115101175266 0.10998525619946276 0.9025548633920746 144 238 144 0.5
0.6619570341759036 0.10997036545444339 0.9025406704262207 144 238 144 0.5
0.6620029953477001 0.10995529745808626 0.9025243829501506 144 238 144 0.5
0.6620494091187796 0.10994004594484175 0.902505953220318 144 238 144 0.5
0.6620962909750053 0.10992460464916026 0.9024853334931757 144 238 144 0.5
0.6621436564022404 0.10990896730549224 0.9024624760251769 144 238 144 0.5
0.6621915208863477 0.10989312764828801 0.9024373330727746 144 238 144 0.5
0.662239899913191 0.10987707941199808 0.9024098568924221 144 238 144 0.5
0.662288808968633 0.10986081633107275 0.9023799997405721 144 238 144 0.5
0.6623382635385372 0.10984433213996249 0.9023477138736783 144 238 144 0.5
0.6623882791087666 0.10982762057311769 0.9023129515481934 144 238 144 0.5
0.6624388711651846 0.10981067536498873 0.9022756650205704 144 238 144 0.5
0.6624900551936542 0.10979349025002604 0.9022358065472627 144 238 144 0.5
0.6625418466800388 0.10977605896268001 0.9021933283847233 144 238 144 0.5
0.6625942611102016 0.10975837523740103 0.9021481827894055 144 238 144 0.5
0.6626473139700056 0.10974043280863953 0.902100322017762 144 238 144 0.5
0.6627010207453142 0.1097222254108459 0.9020496983262462 144 238 144 0.5
0.6627553969219906 0.10970374677847056 0.901996263971311 144 238 144 0.5
0.662810457844692 0.10968499070009623 0.901939971654879 144 238 144 0.5
0.662866208267093 0.10966595502443623 0.9018808074907463 144 238 144 0.5
0.6629226351766426 0.10964664441101614 0.9018188136406615 144 238 144 0.5
0.6629797238630292 0.10962706417021081 0.9017540376223812 144 238 144 0.5
0.6630374596159405 0.10960721961239503 0.9016865269536611 144 238 144 0.5
0.6630958277250644 0.10958711604794356 0.9016163291522579 144 238 144 0.5
0.663154813480089 0.10956675878723117 0.9015434917359276 144 238 144 0.5
0.6632144021707023 0.10954615314063272 0.9014680622224266 144 238 144 0.5
0.6632745790865924 0.1095253044185229 0.9013900881295113 144 238 144 0.5
0.6633353295174469 0.10950421793127654 0.9013096169749374 144 238 144 0.5
0.6633966387529543 0.1094828989892685 0.9012266962764617 144 238 144 0.5
0.663458492082802 0.10946135290287347 0.9011413735518403 144 238 144 0.5
0.6635208747966785 0.10943958498246627 0.9010536963188294 144 238 144 0.5
0.6635837721842716 0.10941760053842171 0.9009637120951851 144 238 144 0.5
0.6636471695352691 0.10939540488111456 0.900871468398664 144 238 144 0.5
0.6637110521393592 0.10937300332091958 0.900777012747022 144 238 144 0.5
0.6637754052862297 0.1093504011682116 0.9006803926580155 144 238 144 0.5
0.6638402142655687 0.10932760373336538 0.9005816556494007 144 238 144 0.5
0.6639054643670643 0.10930461632675573 0.9004808492389339 144 238 144 0.5
0.6639711408804044 0.10928144425875741 0.9003780209443712 144 238 144 0.5
0.6640372290952766 0.10925809283974525 0.9002732182834691 144 238 144 0.5
0.6641037143013696 0.109234567380094 0.9001664887739839 144 238 144 0.5
0.6641705817883709 0.10921087319017846 0.9000578799336713 144 238 144 0.5
0.6642378168459684 0.10918701558037343 0.8999474392802882 144 238 144 0.5
0.6643054047638505 0.10916299986105367 0.8998352143315905 144 238 144 0.5
0.6643733308317046 0.10913883134259397 0.8997212526053344 144 238 144 0.5
0.6644415803392193 0.10911451533536916 0.8996056016192763 144 238 144 0.5
0.6645101385760822 0.10909005714975398 0.8994883088911724 144 238 144 0.5
0.6645789908319814 0.10906546209612325 0.8993694219387789 144 238 144 0.5
0.6646481223966049 0.10904073548485176 0.8992489882798523 144 238 144 0.5
0.6647175185596406 0.10901588262631427 0.8991270554321485 144 238 144 0.5
0.6647871646107764 0.10899090883088555 0.8990036709134237 144 238 144 0.5
0.6648570458397006 0.10896581940894047 0.8988788822414348 144 238 144 0.5
0.6649271475361009 0.10894061967085372 0.8987527369339372 144 238 144 0.5
0.6649974549896652 0.10891531492700014 0.8986252825086876 144 238 144 0.5
0.665067953490082 0.10888991048775454 0.8984965664834422 144 238 144 0.5
0.6651386283270387 0.10886441166349167 0.8983666363759576 144 238 144 0.5
0.6652094647902236 0.10883882376458634 0.8982355397039892 144 238 144 0.5
0.6652804481693245 0.1088131521014133 0.8981033239852938 144 238 144 0.5
0.6653515637540295 0.10878740198434736 0.8979700367376277 144 238 144 0.5
0.6654227968340268 0.10876157872376332 0.897835725478747 144 238 144 0.5
0.6654941326990038 0.10873568763003597 0.8977004377264077 144 238 144 0.5
0.6655655566386489 0.10870973401354007 0.8975642209983665 144 238 144 0.5
0.66563705394265 0.10868372318465043 0.8974271228123794 144 238 144 0.5
0.665708609900695 0.10865766045374183 0.8972891906862028 144 238 144 0.5
0.6657802098024721 0.10863155113118908 0.8971504721375929 144 238 144 0.5
0.6658518389376692 0.10860540052736693 0.8970110146843059 144 238 144 0.5
0.6659234825959741 0.10857921395265017 0.896870865844098 144 238 144 0.5
0.6659951260670749 0.10855299671741359 0.8967300731347252 144 238 144 0.5
0.6660667546406597 0.10852675413203203 0.8965886840739444 144 238 144 0.5
0.6661383536064162 0.10850049150688021 0.8964467461795113 144 238 144 0.5
0.6662099082540326 0.10847421415233298 0.8963043069691825 144 238 144 0.5
0.6662814038731969 0.10844792737876509 0.896161413960714 144 238 144 0.5
0.6663528257535968 0.1084216364965513 0.8960181146718622 144 238 144 0.5
0.6664241591849206 0.10839534681606645 0.8958744566203832 144 238 144 0.5
0.666495389456856 0.10836906364768532 0.8957304873240333 144 238 144 0.5
0.6665665018590915 0.10834279230178268 0.8955862543005688 144 238 144 0.5
0.6666374816813145 0.10831653808873333 0.8954418050677461 144 238 144 0.5
0.6667083142132133 0.10829030631891202 0.895297187143321 144 238 144 0.5
0.6667789847444757 0.10826410230269361 0.8951524480450501 144 238 144 0.5
0.6668494785647899 0.10823793135045284 0.8950076352906896 144 238 144 0.5
0.6669197809638436 0.10821179877256448 0.8948627963979957 144 238 144 0.5
0.6669898772313251 0.10818570987940336 0.8947179788847247 144 238 144 0.5
0.6670597526569221 0.10815966998134424 0.8945732302686328 144 238 144 0.5
0.6671293925303227 0.1081336843887619 0.894428598067476 144 238 144 0.5
0.6671987821412149 0.10810775841203119 0.894284129799011 144 238 144 0.5
0.6672679067792866 0.10808189736152683 0.8941398729809938 144 238 144 0.5
0.6673367517342259 0.10805610654762364 0.8939958751311807 144 238 144 0.5
0.6674053022957207 0.10803039128069639 0.893852183767328 144 238 144 0.5
0.667473543753459 0.10800475687111989 0.893708846407192 144 238 144 0.5
0.6675414613971288 0.1079792086292689 0.8935659105685285 144 238 144 0.5
0.667609040516418 0.10795375186551823 0.8934234237690944 144 238 144 0.5
0.6676762664010149 0.10792839189024264 0.8932814335266455 144 238 144 0.5
0.6677431243406069 0.107903134013817 0.8931399873589383 144 238 144 0.5
0.6678095996248823 0.10787798354661596 0.8929991327837286 144 238 144 0.5
0.6678756775435293 0.10785294579901444 0.8928589173187732 144 238 144 0.5
0.6679413433862356 0.10782802608138713 0.8927193884818281 144 238 144 0.5
0.6680065824426892 0.10780322970410888 0.8925805937906495 144 238 144 0.5
0.6680713800025782 0.10777856197755446 0.8924425807629937 144 238 144 0.5
0.6681357213555904 0.10775402821209866 0.892305396916617 144 238 144 0.5
0.668199591791414 0.10772963371811627 0.8921690897692757 144 238 144 0.5
0.6682629765997368 0.10770538380598205 0.8920337068387258 144 238 144 0.5
0.6683258610702468 0.10768128378607081 0.8918992956427239 144 238 144 0.5
0.6683882304926322 0.10765733896875732 0.8917659036990258 144 238 144 0.5
0.6684500701565808 0.10763355466441643 0.8916335785253882 144 238 144 0.5
0.6685113653517805 0.10760993618342284 0.8915023676395668 144 238 144 0.5
0.6685721013679193 0.1075864888361514 0.8913723185593185 144 238 144 0.5
0.6686322634946855 0.10756321793297685 0.8912434788023991 144 238 144 0.5
0.6686918370217667 0.10754012878427402 0.8911158958865651 144 238 144 0.5
0.6687508072388509 0.10751722670041769 0.8909896173295725 144 238 144 0.5
0.6688091594356265 0.10749451699178267 0.8908646906491778 144 238 144 0.5
0.6688668789017809 0.10747200496874368 0.8907411633631371 144 238 144 0.5
0.6689239509270025 0.10744969594167557 0.8906190829892068 144 238 144 0.5
0.6689803608009792 0.10742759522095309 0.8904984970451428 144 238 144 0.5
0.6690360938133987 0.10740570811695105 0.8903794530487015 144 238 144 0.5
0.6690911352539494 0.10738403994004422 0.8902619985176395 144 238 144 0.5
0.669145470412319 0.10736259600060741 0.8901461809697125 144 238 144 0.5
0.6691990845781957 0.1073413816090154 0.8900320479226773 144 238 144 0.5
0.6692519630412671 0.10732040207564295 0.8899196468942896 144 238 144 0.5
0.6693040910912217 0.10729966271086491 0.8898090254023061 144 238 144 0.5
0.6693554540177471 0.107279168825056 0.8897002309644827 144 238 144 0.5
0.6694060388886933 0.10725892503944469 0.8895933057688179 144 238 144 0.5
0.6694558478970192 0.10723893011335613 0.8894882466681991 144 238 144 0.5
0.6695048908769886 0.10721917984464319 0.8893850276119173 144 238 144 0.5
0.6695531777217725 0.10719967000832861 0.8892836223726975 144 238 144 0.5
0.6696007183245417 0.1071803963794352 0.8891840047232658 144 238 144 0.5
0.669647522578467 0.10716135473298569 0.8890861484363474 144 238 144 0.5
0.6696936003767193 0.10714254084400286 0.8889900272846684 144 238 144 0.5
0.6697389616124698 0.10712395048750954 0.8888956150409545 144 238 144 0.5
0.669783616178889 0.10710557943852841 0.8888028854779311 144 238 144 0.5
0.6698275739691482 0.10708742347208229 0.888711812368324 144 238 144 0.5
0.6698708448764178 0.10706947836319392 0.8886223694848584 144 238 144 0.5
0.669913438793869 0.10705173988688609 0.8885345306002609 144 238 144 0.5
0.6699553656146726 0.10703420381818156 0.8884482694872565 144 238 144 0.5
0.6699966352319997 0.1070168659321031 0.8883635599185707 144 238 144 0.5
0.6700372575390208 0.1069997220036735 0.8882803756669297 144 238 144 0.5
0.6700772424289071 0.10698276780791546 0.888198690505059 144 238 144 0.5
0.6701165997948294 0.10696599911985183 0.8881184782056841 144 238 144 0.5
0.6701553395299586 0.10694941171450537 0.8880397125415308 144 238 144 0.5
0.6701934715274656 0.10693300136689882 0.8879623672853248 144 238 144 0.5
0.6702310056805212 0.10691676385205492 0.8878864162097917 144 238 144 0.5
0.6702679518822965 0.10690069494499652 0.8878118330876572 144 238 144 0.5
0.6703043200259622 0.10688479042074633 0.8877385916916469 144 238 144 0.5
0.6703401200046893 0.10686904605432715 0.8876666657944864 144 238 144 0.5
0.6703753617116487 0.10685345762076172 0.8875960291689017 144 238 144 0.5
0.6704100550400112 0.10683802089507283 0.887526655587618 144 238 144 0.5
0.6704442098829477 0.1068227316522832 0.8874585188233611 144 238 144 0.5
0.6704778361336293 0.10680758566741569 0.8873915926488571 144 238 144 0.5
0.6705109436852266 0.10679257871549301 0.8873258508368311 144 238 144 0.5
0.6705435424309106 0.10677770657153794 0.8872612671600091 144 238 144 0.5
0.6705756422638524 0.10676296501057327 0.8871978153911168 144 238 144 0.5
0.6706072530772224 0.10674834980762173 0.8871354693028793 144 238 144 0.5
0.670638384764192 0.10673385673770608 0.8870742026680231 144 238 144 0.5
0.6706690472179319 0.10671948157584915 0.8870139892592733 144 238 144 0.5
0.6706992503316128 0.10670522009707364 0.8869548028493557 144 238 144 0.5
0.6707290039984061 0.10669106807640241 0.8868966172109961 144 238 144 0.5
0.6707583181114821 0.10667702128885813 0.88683940611692 144 238 144 0.5
0.6707872025640121 0.10666307550946365 0.8867831433398531 144 238 144 0.5
0.6708156672491667 0.10664922651324169 0.8867278026525212 144 238 144 0.5
0.6708437220601172 0.106635470075215 0.8866733578276497 144 238 144 0.5
0.6708713768900341 0.10662180197040641 0.8866197826379643 144 238 144 0.5
0.6708986416320885 0.10660821797383864 0.886567050856191 144 238 144 0.5
0.6709255261794511 0.10659471386053451 0.8865151362550553 144 238 144 0.5
0.670952040425293 0.10658128540551676 0.8864640126072828 144 238 144 0.5
0.6709781942627852 0.10656792838380813 0.8864136536855991 144 238 144 0.5
0.671003997585098 0.10655463857043145 0.8863640332627301 144 238 144 0.5
0.671029460285403 0.10654141174040943 0.8863151251114011 144 238 144 0.5
0.6710545922568707 0.10652824366876484 0.8862669030043379 144 238 144 0.5
0.6710794033926722 0.10651513013052052 0.8862193407142666 144 238 144 0.5
0.6711039035859782 0.10650206690069917 0.8861724120139122 144 238 144 0.5
0.6711281027299596 0.10648904975432359 0.8861260906760008 144 238 144 0.5
0.6711520107177874 0.10647607446641655 0.886080350473258 144 238 144 0.5
0.6711756374426325 0.10646313681200081 0.8860351651784093 144 238 144 0.5
0.6711989927976658 0.10645023256609912 0.8859905085641803 144 238 144 0.5
0.671222086676058 0.10643735750373429 0.885946354403297 144 238 144 0.5
0.6712449289709802 0.10642450739992904 0.885902676468485 144 238 144 0.5
0.6712675295756033 0.10641167802970622 0.8858594485324699 144 238 144 0.5
0.6712898983830982 0.1063988651680885 0.8858166443679771 144 238 144 0.5
0.6713120452866356 0.10638606459009872 0.8857742377477328 144 238 144 0.5
0.6713339801793865 0.10637327207075961 0.8857322024444622 144 238 144 0.5
0.6713557129545218 0.10636048338509396 0.885690512230891 144 238 144 0.5
0.6713772535052124 0.10634769430812453 0.8856491408797451 144 238 144 0.5
0.6713986117246292 0.10633490061487412 0.8856080621637503 144 238 144 0.5
0.6714197975059433 0.10632209808036547 0.885567249855632 144 238 144 0.5
0.671440820742325 0.1063092824796213 0.8855266777281154 144 238 144 0.5
0.6714616913269458 0.10629644958766446 0.8854863195539271 144 238 144 0.5
0.6714824191529764 0.10628359517951769 0.8854461491057921 144 238 144 0.5
0.6715030141135873 0.10627071503020374 0.8854061401564365 144 238 144 0.5
0.6715234861019501 0.10625780491474544 0.8853662664785857 144 238 144 0.5
0.6715438450112352 0.10624486060816549 0.8853265018449652 144 238 144 0.5
0.6715641007346136 0.10623187788548669 0.8852868200283012 144 238 144 0.5
0.6715842631652564 0.10621885252173181 0.8852471948013191 144 238 144 0.5
0.6716043421963342 0.10620578029192361 0.8852075999367444 144 238 144 0.5
0.671624347721018 0.10619265697108488 0.8851680092073028 144 238 144 0.5
0.6716442896324788 0.10617947833423835 0.88512839638572 144 238 144 0.5
0.6716641778238873 0.10616624015640681 0.8850887352447219 144 238 144 0.5
0.6716840221884144 0.10615293821261305 0.8850489995570338 144 238 144 0.5
0.6717038326192313 0.1061395682778798 0.8850091630953817 144 238 144 0.5
0.6717236190095085 0.10612612612722987 0.884969199632491 144 238 144 0.5
0.6717433912524171 0.10611260753568601 0.8849290829410875 144 238 144 0.5
0.6717631592411282 0.10609900827827098 0.8848887867938968 144 238 144 0.5
0.6717829328688122 0.10608532413000757 0.8848482849636449 144 238 144 0.5
0.6718027220286401 0.10607155086591852 0.8848075512230569 144 238 144 0.5
0.6718225366137833 0.10605768426102662 0.8847665593448588 144 238 144 0.5
0.6718423865174121 0.10604372009035462 0.8847252831017762 144 238 144 0.5
0.6718622816326977 0.10602965412892533 0.8846836962665348 144 238 144 0.5
0.6718822318528109 0.10601548215176147 0.8846417726118603 144 238 144 0.5
0.6719022470709226 0.10600119993388586 0.8845994859104781 144 238 144 0.5
0.6719223371802039 0.10598680325032121 0.8845568099351142 144 238 144 0.5
0.6719425120738254 0.10597228787609035 0.8845137184584942 144 238 144 0.5
0.6719627816449579 0.10595764958621598 0.8844701852533438 144 238 144 0.5
0.6719831557867726 0.10594288415572095 0.8844261840923884 144 238 144 0.5
0.6720036443924403 0.10592798735962798 0.8843816887483538 144 238 144 0.5
0.6720242573551319 0.10591295497295986 0.8843366729939659 144 238 144 0.5
0.6720450045680182 0.10589778277073933 0.8842911106019499 144 238 144 0.5
0.6720658959242702 0.10588246652798916 0.8842449753450318 144 238 144 0.5
0.6720869413170588 0.10586700201973215 0.8841982409959375 144 238 144 0.5
0.6721081506395548 0.10585138502099106 0.884150881327392 144 238 144 0.5
0.672129533784929 0.10583561130678862 0.8841028701121213 144 238 144 0.5
0.6721511006463525 0.10581967665214764 0.8840541811228513 144 238 144 0.5
0.6721728611169961 0.10580357683209092 0.8840047881323074 144 238 144 0.5
0.6721948250698272 0.1057873076325428 0.8839546649278858 144 238 144 0.5
0.6722169985912916 0.10577086688258618 0.8839037880465062 144 238 144 0.5
0.6722393795513865 0.10575425684479453 0.8838521399913335 144 238 144 0.5
0.6722619647434266 0.10573748036270549 0.8837997040473492 144 238 144 0.5
0.6722847509607269 0.10572054027985658 0.8837464634995345 144 238 144 0.5
0.672307734996602 0.1057034394397856 0.883692401632871 144 238 144 0.5
0.6723309136443668 0.10568618068603004 0.8836375017323401 144 238 144 0.5
0.6723542836973354 0.10566876686212759 0.8835817470829227 144 238 144 0.5
0.6723778419488234 0.10565120081161583 0.8835251209696008 144 238 144 0.5
0.6724015851921449 0.10563348537803235 0.8834676066773551 144 238 144 0.5
0.6724255102206147 0.10561562340491487 0.8834091874911674 144 238 144 0.5
0.672449613827548 0.10559761773580094 0.8833498466960189 144 238 144 0.5
0.6724738928062588 0.10557947121422816 0.8832895675768909 144 238 144 0.5
0.6724983439500625 0.10556118668373422 0.8832283334187652 144 238 144 0.5
0.6725229640522735 0.10554276698785672 0.8831661275066225 144 238 144 0.5
0.6725477499062065 0.10552421497013323 0.8831029331254446 144 238 144 0.5
0.6725726983051763 0.10550553347410145 0.8830387335602125 144 238 144 0.5
0.6725978060424976 0.10548672534329893 0.8829735120959079 144 238 144 0.5
0.6726230699114853 0.10546779342126335 0.8829072520175122 144 238 144 0.5
0.6726484867054541 0.10544874055153228 0.8828399366100065 144 238 144 0.5
0.6726740532177184 0.10542956957764336 0.8827715491583723 144 238 144 0.5
0.6726997662415932 0.10541028334313424 0.8827020729475908 144 238 144 0.5
0.6727256225703933 0.1053908846915425 0.8826314912626436 144 238 144 0.5
0.6727516189974331 0.10537137646640578 0.8825597873885118 144 238 144 0.5
0.6727777523160278 0.1053517615112617 0.8824869446101772 144 238 144 0.5
0.6728040193194919 0.10533204266964788 0.8824129462126206 144 238 144 0.5
0.6728304168011399 0.10531222278510194 0.8823377754808237 144 238 144 0.5
0.6728569415542868 0.1052923047011615 0.8822614156997676 144 238 144 0.5
0.6728835903722472 0.10527229126136418 0.882183850154434 144 238 144 0.5
0.672910360048336 0.10525218530924761 0.882105062129804 144 238 144 0.5
0.672937247375868 0.10523198968834943 0.882025034910859 144 238 144 0.5
0.6729642491481574 0.10521170724220721 0.8819437517825807 144 238 144 0.5
0.6729913621585195 0.10519134081435859 0.88186119602995 144 238 144 0.5
0.6730185832002689 0.10517089324834122 0.8817773509379482 144 238 144 0.5
0.6730459090667201 0.10515036738769268 0.8816921997915571 144 238 144 0.5
0.6730733365511882 0.10512976607595062 0.8816057258757577 144 238 144 0.5
0.6731008624469874 0.10510909215665268 0.8815179124755319 144 238 144 0.5
0.6731284835474328 0.10508834847333641 0.88142874287586 144 238 144 0.5
0.6731561966458393 0.10506753786953951 0.8813382003617246 144 238 144 0.5
0.6731839985355212 0.10504666318879954 0.8812462682181063 144 238 144 0.5
0.6732118860097935 0.10502572727465417 0.8811529297299866 144 238 144 0.5
0.6732398558619708 0.10500473297064097 0.881058168182347 144 238 144 0.5
0.6732679048853678 0.10498368312029759 0.8809619668601684 144 238 144 0.5
0.6732960298732996 0.10496258056716168 0.8808643090484328 144 238 144 0.5
0.6733242276190805 0.10494142815477077 0.8807651780321212 144 238 144 0.5
0.6733524949160252 0.10492022872666258 0.8806645570962148 144 238 144 0.5
0.6733808285574489 0.1048989851263747 0.8805624295256956 144 238 144 0.5
0.6734092253366659 0.10487770019744475 0.8804587786055443 144 238 144 0.5
0.6734376820469911 0.10485637678341034 0.8803535876207426 144 238 144 0.5
0.6734661954817392 0.10483501772780911 0.8802468398562718 144 238 144 0.5
0.6734947624342248 0.10481362587417865 0.880138518597113 144 238 144 0.5
0.6735233796977629 0.10479220406605658 0.880028607128248 144 238 144 0.5
0.673552044065668 0.10477075514698056 0.8799170887346578 144 238 144 0.5
0.673580752331255 0.10474928196048819 0.8798039467013239 144 238 144 0.5
0.6736095012878385 0.10472778735011712 0.8796891643132277 144 238 144 0.5
0.6736382877287334 0.10470627415940491 0.8795727248553507 144 238 144 0.5
0.6736671084472541 0.10468474523188924 0.8794546116126738 144 238 144 0.5
0.6736959602367155 0.10466320341110767 0.8793348078701786 144 238 144 0.5
0.6737248398904327 0.10464165154059787 0.8792132969128468 144 238 144 0.5
0.67375374420172 0.10462009246389749 0.8790900620256593 144 238 144 0.5
0.673782669963892 0.10459852902454404 0.8789650864935974 144 238 144 0.5
0.6738116139702637 0.10457696406607525 0.8788383536016429 144 238 144 0.5
0.6738405730141499 0.1045554004320287 0.8787098466347768 144 238 144 0.5
0.6738695438888652 0.10453384096594198 0.8785795488779806 144 238 144 0.5
0.6738985233877243 0.10451228851135277 0.8784474436162357 144 238 144 0.5
0.6739275083040419 0.10449074591179866 0.8783135141345232 144 238 144 0.5
0.673956495431133 0.10446921601081731 0.8781777437178249 144 238 144 0.5
0.6739854815623122 0.10444770165194628 0.878040115651122 144 238 144 0.5
0.6740144634908939 0.10442620567872321 0.8779006132193955 144 238 144 0.5
0.6740434380101932 0.10440473093468573 0.8777592197076272 144 238 144 0.5
0.6740724019135248 0.10438328026337146 0.8776159184007982 144 238 144 0.5
0.6741013519942032 0.10436185650831803 0.87747069258389 144 238 144 0.5
0.6741302850455434 0.10434046251306306 0.877323525541884 144 238 144 0.5
0.6741591978608601 0.10431910112114415 0.8771744005597613 144 238 144 0.5
0.6741880872334677 0.10429777517609892 0.8770233009225034 144 238 144 0.5
0.6742169499566815 0.10427648752146504 0.8768702099150919 144 238 144 0.5
0.6742457828238156 0.10425524100078008 0.8767151108225079 144 238 144 0.5
0.6742745826281852 0.10423403845758165 0.8765579869297326 144 238 144 0.5
0.6743033461631048 0.10421288273540744 0.8763988215217475 144 238 144 0.5
0.6743320702218893 0.10419177667779504 0.8762375978835343 144 238 144 0.5
0.6743607515978531 0.104170723128282 0.8760742993000739 144 238 144 0.5
0.6743893870843114 0.10414972493040604 0.875908909056348 144 238 144 0.5
0.6744179734745785 0.10412878492770475 0.8757414104373377 144 238 144 0.5
0.6744465075619696 0.10410790596371572 0.875571786728024 144 238 144 0.5
0.674474986139799 0.10408709088197662 0.8754000212133894 144 238 144 0.5
0.6745034060013815 0.10406634252602502 0.8752260971784143 144 238 144 0.5
0.6745317639400319 0.1040456637393986 0.8750499979080805 144 238 144 0.5
0.6745600567490649 0.10402505736563494 0.874871706687369 144 238 144 0.5
0.6745882812217955 0.10400452624827167 0.8746912068012613 144 238 144 0.5
0.6746164341515379 0.10398407323084642 0.8745084815347389 144 238 144 0.5
0.6746445123316072 0.10396370115689677 0.874323514172783 144 238 144 0.5
0.6746725125553182 0.10394341286996041 0.8741362880003752 144 238 144 0.5
0.6747004316159854 0.10392321121357492 0.8739467863024967 144 238 144 0.5
0.6747282663069236 0.10390309903127792 0.8737549923641287 144 238 144 0.5
0.6747560134214475 0.10388307916660702 0.8735608894702527 144 238 144 0.5
0.674783669752872 0.10386315446309988 0.87336446090585 144 238 144 0.5
0.6748112320945117 0.10384332776429409 0.8731656899559022 144 238 144 0.5
0.6748386972396812 0.10382360191372726 0.8729645599053902 144 238 144 0.5
0.6748660619816955 0.10380397975493708 0.8727610540392959 144 238 144 0.5
0.674893323113869 0.10378446413146108 0.8725551556426001 144 238 144 0.5
0.6749204774295168 0.10376505788683694 0.8723468480002847 144 238 144 0.5
0.6749475219551506 0.10374576371627277 0.8721361180929833 144 238 144 0.5
0.6749744564647582 0.10372658256739258 0.8719229964426642 144 238 144 0.5
0.675001282522408 0.10370751424920571 0.8717075419400571 144 238 144 0.5
0.6750280017227995 0.10368855855123782 0.8714898139613333 144 238 144 0.5
0.6750546156606325 0.10366971526301448 0.8712698718826644 144 238 144 0.5
0.675081125930607 0.10365098417406134 0.8710477750802215 144 238 144 0.5
0.6751075341274227 0.103632365073904 0.8708235829301761 144 238 144 0.5
0.6751338418457793 0.10361385775206802 0.8705973548086997 144 238 144 0.5
0.6751600506803767 0.10359546199807906 0.8703691500919634 144 238 144 0.5
0.6751861622259145 0.10357717760146273 0.870139028156139 144 238 144 0.5
0.6752121780770926 0.1035590043517446 0.8699070483773972 144 238 144 0.5
0.6752380998286107 0.10354094203845035 0.8696732701319101 144 238 144 0.5
0.6752639290751686 0.10352299045110552 0.8694377527958485 144 238 144 0.5
0.675289667411466 0.10350514937923574 0.869200555745384 144 238 144 0.5
0.675315316432203 0.10348741861236664 0.8689617383566879 144 238 144 0.5
0.6753408777320788 0.1034697979400238 0.8687213600059318 144 238 144 0.5
0.6753663529057937 0.10345228715173287 0.8684794800692867 144 238 144 0.5
0.6753917435480473 0.10343488603701938 0.8682361579229243 144 238 144 0.5
0.6754170512535393 0.10341759438540904 0.8679914529430156 144 238 144 0.5
0.6754422776169695 0.1034004119864274 0.8677454245057327 144 238 144 0.5
0.6754674242330376 0.1033833386296001 0.8674981319872461 144 238 144 0.5
0.675492492696444 0.10336637410445267 0.8672496347637273 144 238 144 0.5
0.6755174846018873 0.10334951820051083 0.8669999922113482 144 238 144 0.5
0.6755424015440683 0.10333277070730014 0.8667492637062799 144 238 144 0.5
0.6755672451176863 0.10331613141434619 0.8664975086246938 144 238 144 0.5
0.6755920169174411 0.10329960011117462 0.866244786342761 144 238 144 0.5
0.6756167185380326 0.10328317658731104 0.8659911562366532 144 238 144 0.5
0.6756413515741605 0.10326686063228102 0.8657366776825417 144 238 144 0.5
0.6756659176205247 0.10325065203561024 0.865481410056598 144 238 144 0.5
0.6756904182718249 0.10323455058682424 0.865225412734993 144 238 144 0.5
0.6757148551227606 0.10321855607544866 0.8649687450938984 144 238 144 0.5
0.6757392297680321 0.10320266829100912 0.8647114665094856 144 238 144 0.5
0.6757635438023387 0.1031868870230312 0.8644536363579259 144 238 144 0.5
0.6757877988203803 0.10317121206104053 0.8641953140153905 144 238 144 0.5
0.675811996416857 0.10315564319456272 0.8639365588580512 144 238 144 0.5
0.675836138186468 0.10314018021312335 0.8636774302620789 144 238 144 0.5
0.6758602257239139 0.10312482290624811 0.8634179876036452 144 238 144 0.5
0.6758842606238935 0.1031095710634625 0.8631582902589214 144 238 144 0.5
0.6759082444811072 0.1030944244742922 0.862898397604079 144 238 144 0.5
0.6759321788902547 0.10307938292826282 0.8626383690152893 144 238 144 0.5
0.6759560654460357 0.10306444621489994 0.8623782638687236 144 238 144 0.5
0.6759799057431499 0.10304961412372916 0.8621181415405534 144 238 144 0.5
0.676003701376297 0.10303488644427614 0.8618580614069499 144 238 144 0.5
0.6760274539401772 0.10302026296606646 0.8615980828440846 144 238 144 0.5
0.6760511650294897 0.10300574347862573 0.8613382652281287 144 238 144 0.5
0.6760748362389346 0.10299132777147954 0.8610786679352537 144 238 144 0.5
0.6760984691632117 0.10297701563415353 0.860819350341631 144 238 144 0.5
0.6761220653970207 0.10296280685617329 0.8605603718234318 144 238 144 0.5
0.6761456265350616 0.10294870122706447 0.8603017917568279 144 238 144 0.5
0.6761691541720337 0.1029346985363526 0.8600436695179902 144 238 144 0.5
0.676192649902637 0.10292079857356336 0.8597860644830901 144 238 144 0.5
0.6762161153215714 0.10290700112822236 0.8595290360282992 144 238 144 0.5
0.6762395520235367 0.10289330598985515 0.8592726435297888 144 238 144 0.5
0.6762629616032324 0.10287971294798738 0.8590169463637303 144 238 144 0.5
0.6762863456553585 0.10286622179214469 0.858762003906295 144 238 144 0.5
0.6763097057746148 0.1028528323118526 0.858507875533654 144 238 144 0.5
0.6763330435557009 0.10283954429663685 0.8582546206219792 144 238 144 0.5
0.6763563605933166 0.1028263575360229 0.8580022985474416 144 238 144 0.5
0.6763796584821619 0.10281327181953646 0.8577509686862128 144 238 144 0.5
0.6764029388169362 0.10280028693670314 0.8575006904144641 144 238 144 0.5
0.6764262031923396 0.10278740267704849 0.8572515231083665 144 238 144 0.5
0.6764494532030716 0.10277461883009814 0.8570035261440917 144 238 144 0.5
0.6764726904438323 0.10276193518537771 0.8567567588978111 144 238 144 0.5
0.6764959165093213 0.10274935153241285 0.8565112807456963 144 238 144 0.5
0.6765191329942383 0.10273686766072913 0.8562671510639184 144 238 144 0.5
0.6765423414932831 0.10272448335985213 0.8560244292286485 144 238 144 0.5
0.6765655436011556 0.1027121984193075 0.8557831746160584 144 238 144 0.5
0.6765887409125555 0.10270001262862086 0.8555434466023191 144 238 144 0.5
0.6766119350221826 0.10268792577731779 0.8553053045636025 144 238 144 0.5
0.6766351275247366 0.10267593765492389 0.8550688078760794 144 238 144 0.5
0.6766583200149174 0.10266404805096478 0.8548340159159213 144 238 144 0.5
0.6766815140874246 0.10265225675496609 0.8546009880593 144 238 144 0.5
0.6767047113369581 0.1026405635564534 0.8543697836823864 144 238 144 0.5
0.6767279133582177 0.10262896824495239 0.854140462161352 144 238 144 0.5
0.676751121745903 0.10261747060998858 0.853913082872368 144 238 144 0.5
0.6767743380947141 0.10260607044108762 0.8536877051916063 144 238 144 0.5
0.6767975639993504 0.1025947675277751 0.8534643884952376 144 238 144 0.5
0.6768208010545118 0.10258356165957663 0.8532431921594337 144 238 144 0.5
0.6768440508548983 0.10257245262601787 0.853024175560366 144 238 144 0.5
0.6768673149952095 0.1025614402166244 0.8528073980742057 144 238 144 0.5
0.6768905950701452 0.10255052422092183 0.852592919077124 144 238 144 0.5
0.6769138926744048 0.10253970442843571 0.8523807979452925 144 238 144 0.5
0.6769372094026888 0.10252898062869176 0.8521710940548828 144 238 144 0.5
0.6769605468496963 0.10251835261121546 0.8519638667820657 144 238 144 0.5
0.6769839066101275 0.10250782016553253 0.8517591755030129 144 238 144 0.5
0.6770072902786821 0.10249738308116857 0.8515570795938958 144 238 144 0.5
0.6770306994500597 0.10248704114764912 0.8513576384308857 144 238 144 0.5
0.6770541357189603 0.10247679415449985 0.851160911390154 144 238 144 0.5
0.6770776006800836 0.10246664189124632 0.8509669578478721 144 238 144 0.5
0.6771010959281292 0.10245658414741421 0.8507758371802111 144 238 144 0.5
0.6771246230577971 0.10244662071252905 0.8505876087633428 144 238 144 0.5
0.6771481836637869 0.10243675137611652 0.8504023319734383 144 238 144 0.5
0.6771717793407984 0.10242697592770215 0.8502200661866688 144 238 144 0.5
0.6771954116835316 0.10241729415681165 0.8500408707792061 144 238 144 0.5
0.677219082286686 0.10240770585297054 0.8498648051272214 144 238 144 0.5
0.6772427927449616 0.10239821080570446 0.8496919286068858 144 238 144 0.5
0.677266544653058 0.10238880880453907 0.8495223005943712 144 238 144 0.5
0.677290339605675 0.1023794996389999 0.8493559804658484 144 238 144 0.5
0.6773141791975125 0.1023702830986126 0.849193027597489 144 238 144 0.5
0.6773380650232701 0.10236115897290277 0.8490335013654646 144 238 144 0.5
0.6773619986757804 0.10235212705075222 0.8488774611107569 144 238 144 0.5
0.6773859800934539 0.10234318655061456 0.8487249349963703 144 238 144 0.5
0.6774100045232819 0.10233433507338936 0.848575862774406 144 238 144 0.5
0.6774340663863925 0.10232556993522654 0.8484301686333665 144 238 144 0.5
0.6774581601039131 0.10231688845227614 0.8482877767617537 144 238 144 0.5
0.6774822800969718 0.1023082879406881 0.8481486113480703 144 238 144 0.5
