ply
format ascii 1.0
element vertex 613
property float x
property float y
property float z
property uchar red
property uchar green
property uchar blue
property float size
end_header
0.007764656275245561 -0.046502606631597145 0.6724325231158063 144 238 144 0.5
0.007769625675611819 -0.04650759316583371 0.6726324335755147 144 238 144 0.5
0.007774545211720261 -0.04651255248779062 0.6728317815347039 144 238 144 0.5
0.007779417130773929 -0.04651748807829954 0.6730305639491219 144 238 144 0.5
0.007784243679975869 -0.046522403418192144 0.6732287777745164 144 238 144 0.5
0.007789027106529116 -0.04652730198830005 0.6734264199666352 144 238 144 0.5
0.007793769657636721 -0.046532187269454975 0.6736234874812264 144 238 144 0.5
0.007798473580501725 -0.04653706274248853 0.6738199772740376 144 238 144 0.5
0.007803141122327166 -0.04654193188823242 0.6740158863008169 144 238 144 0.5
0.007807774530316095 -0.046546798187518265 0.6742112115173122 144 238 144 0.5
0.007812376051671547 -0.046551665121177754 0.6744059498792713 144 238 144 0.5
0.00781694793359657 -0.046556536170042545 0.6746000983424421 144 238 144 0.5
0.007821492423294206 -0.04656141481494429 0.6747936538625723 144 238 144 0.5
0.007826011767967494 -0.04656630453671465 0.6749866133954099 144 238 144 0.5
0.007830508214819483 -0.04657120881618529 0.6751789738967028 144 238 144 0.5
0.007834984011053214 -0.04657613113418787 0.6753707323221989 144 238 144 0.5
0.007839441403871725 -0.04658107497155405 0.675561885627646 144 238 144 0.5
0.007843882640478066 -0.046586043809115504 0.6757524307687921 144 238 144 0.5
0.007848309968075274 -0.046591041127703875 0.6759423647013848 144 238 144 0.5
0.007852725633866395 -0.046596070408150836 0.6761316843811722 144 238 144 0.5
0.007857131885054472 -0.04660113513128805 0.6763203867639023 144 238 144 0.5
0.007861530968842546 -0.04660623877794717 0.6765084688053227 144 238 144 0.5
0.007865925132433662 -0.04661138482895985 0.6766959274611812 144 238 144 0.5
0.007870316623030862 -0.04661657676515776 0.676882759687226 144 238 144 0.5
0.007874707687837188 -0.046621818067372575 0.6770689624392049 144 238 144 0.5
0.007879100574055683 -0.04662711221643594 0.6772545326728654 144 238 144 0.5
0.007883497528889392 -0.046632462693179506 0.6774394673439559 144 238 144 0.5
0.007887900799541355 -0.046637872978434955 0.677623763408224 144 238 144 0.5
0.007892312633214618 -0.04664334655303393 0.6778074178214175 144 238 144 0.5
0.00789673527711222 -0.04664888689780812 0.6779904275392845 144 238 144 0.5
0.007901170978437207 -0.04665449749358916 0.6781727895175729 144 238 144 0.5
0.007905621984392621 -0.04666018182120872 0.6783545007120302 144 238 144 0.5
0.007910090542181506 -0.04666594336149846 0.6785355580784045 144 238 144 0.5
0.007914578899006902 -0.04667178559529005 0.6787159585724439 144 238 144 0.5
0.007919089302071853 -0.04667771200341513 0.6788956991498959 144 238 144 0.5
0.007923623998579404 -0.046683726066705386 0.6790747767665086 144 238 144 0.5
0.007928185235732596 -0.04668983126599246 0.6792531883780298 144 238 144 0.5
0.00793277526073447 -0.046696031082108014 0.6794309309402072 144 238 144 0.5
0.007937396320788074 -0.04670232899588373 0.6796080014087893 144 238 144 0.5
0.007942050663096447 -0.04670872848815125 0.6797843967395232 144 238 144 0.5
0.00794674053486263 -0.04671523303974223 0.6799601138881571 144 238 144 0.5
0.007951468183289673 -0.046721846131488345 0.6801351498104389 144 238 144 0.5
0.00795623585558061 -0.04672857124422126 0.6803095014621164 144 238 144 0.5
0.007961045798938493 -0.04673541185877262 0.6804831657989376 144 238 144 0.5
0.007965900360789311 -0.046742370667496445 0.6806561409663932 144 238 144 0.5
0.007970802360157436 -0.04674944665257087 0.6808284307083001 144 238 144 0.5
0.007975754754654264 -0.04675663770587728 0.6810000404136368 144 238 144 0.5
0.007980760501909873 -0.04676394171914989 0.6811709754716034 144 238 144 0.5
0.007985822559554354 -0.04677135658412294 0.6813412412714004 144 238 144 0.5
0.007990943885217795 -0.046778880192530695 0.6815108432022278 144 238 144 0.5
0.007996127436530281 -0.04678651043610738 0.6816797866532859 144 238 144 0.5
0.008001376171121902 -0.04679424520658725 0.6818480770137753 144 238 144 0.5
0.008006693046622741 -0.046802082395704526 0.6820157196728955 144 238 144 0.5
0.008012081020662889 -0.04681001989519345 0.6821827200198473 144 238 144 0.5
0.008017543050872433 -0.04681805559678827 0.6823490834438312 144 238 144 0.5
0.008023082094881458 -0.04682618739222323 0.6825148153340467 144 238 144 0.5
0.008028701110320054 -0.046834413173232566 0.6826799210796947 144 238 144 0.5
0.008034403054818305 -0.046842730831550515 0.6828444060699751 144 238 144 0.5
0.008040190886006302 -0.04685113825891134 0.6830082756940884 144 238 144 0.5
0.008046067561514133 -0.04685963334704925 0.6831715353412346 144 238 144 0.5
0.008052036038971878 -0.0468682139876985 0.6833341904006143 144 238 144 0.5
0.00805809927600963 -0.046876878072593324 0.6834962462614275 144 238 144 0.5
0.008064260230257478 -0.046885623493467976 0.6836577083128744 144 238 144 0.5
0.008070521859345503 -0.046894448142056684 0.6838185819441553 144 238 144 0.5
0.0080768871209038 -0.0469033499100937 0.6839788725444707 144 238 144 0.5
0.008083358972562451 -0.04691232668931325 0.6841385855030205 144 238 144 0.5
0.008089940371951545 -0.0469213763714496 0.6842977262090054 144 238 144 0.5
0.008096634276701169 -0.04693049684823696 0.6844563000516253 144 238 144 0.5
0.008103443644441407 -0.04693968601140959 0.6846143124200802 144 238 144 0.5
0.008110371432802353 -0.04694894175270172 0.684771768703571 144 238 144 0.5
0.00811742059941409 -0.046958261963847614 0.6849286742912978 144 238 144 0.5
0.008124594101906702 -0.04696764453658147 0.6850850345724603 144 238 144 0.5
0.008131894897910287 -0.04697708736263757 0.6852408549362594 144 238 144 0.5
0.00813932594505492 -0.04698658833375013 0.6853961407718951 144 238 144 0.5
0.008146890200970694 -0.04699614534165341 0.6855508974685678 144 238 144 0.5
0.008154590623287697 -0.04700575627808163 0.6857051304154774 144 238 144 0.5
0.008162430169636017 -0.04701541903476904 0.6858588450018245 144 238 144 0.5
0.00817041179764574 -0.04702513150344988 0.6860120466168094 144 238 144 0.5
0.00817853846494695 -0.04703489157585839 0.6861647406496318 144 238 144 0.5
0.008186813129169735 -0.047044697143728824 0.6863169324894925 144 238 144 0.5
0.008195238747944191 -0.04705454609879539 0.6864686275255917 144 238 144 0.5
0.008203818278900394 -0.04706443633279237 0.6866198311471295 144 238 144 0.5
0.008212554679668438 -0.04707436573745398 0.6867705487433063 144 238 144 0.5
0.00822145090787841 -0.04708433220451446 0.6869207857033223 144 238 144 0.5
0.008230509921160391 -0.047094333625708064 0.6870705474163777 144 238 144 0.5
0.008239734677144478 -0.04710436789276902 0.6872198392716728 144 238 144 0.5
0.008249128133460749 -0.04711443289743158 0.6873686666584078 144 238 144 0.5
0.008258693247739295 -0.047124526531429956 0.6875170349657829 144 238 144 0.5
0.008268432977610207 -0.04713464668649843 0.6876649495829986 144 238 144 0.5
0.008278350280703568 -0.04714479125437122 0.687812415899255 144 238 144 0.5
0.008288448114649467 -0.047154958126782574 0.6879594393037523 144 238 144 0.5
0.008298729437077986 -0.04716514519546672 0.6881060251856909 144 238 144 0.5
0.00830919720561922 -0.04717535035215791 0.6882521789342708 144 238 144 0.5
0.008319854377903257 -0.047185571488590386 0.6883979059386928 144 238 144 0.5
0.008330703911560173 -0.04719580649649838 0.6885432115881563 144 238 144 0.5
0.008341748764220065 -0.04720605326761613 0.6886881012718622 144 238 144 0.5
0.00835299189351302 -0.0472163096936779 0.6888325803790107 144 238 144 0.5
0.00836443625706912 -0.0472265736664179 0.6889766542988021 144 238 144 0.5
0.008376084812518461 -0.047236843077570395 0.6891203284204364 144 238 144 0.5
0.00838794051749112 -0.0472471158188696 0.6892636081331137 144 238 144 0.5
0.008400006329617188 -0.0472573897820498 0.6894064988260348 144 238 144 0.5
0.00841228520652676 -0.04726766285884519 0.6895490058883995 144 238 144 0.5
0.008424780105849907 -0.04727793294099002 0.6896911347094082 144 238 144 0.5
0.008437493985216735 -0.04728819792021855 0.6898328906782615 144 238 144 0.5
0.008450429802257317 -0.04729845568826501 0.6899742791841592 144 238 144 0.5
0.008463590514601743 -0.04730870413686364 0.6901153056163016 144 238 144 0.5
0.008476979079880109 -0.04731894115774867 0.690255975363889 144 238 144 0.5
0.008490598455722493 -0.04732916464265437 0.690396293816122 144 238 144 0.5
0.008504451599758982 -0.04733937248331495 0.6905362663622001 144 238 144 0.5
0.008518541469619674 -0.047349562571464665 0.6906758983913246 144 238 144 0.5
0.008532871022934643 -0.047359732798837754 0.6908151952926949 144 238 144 0.5
0.008547443217333986 -0.04736988105716846 0.6909541624555114 144 238 144 0.5
0.008562261010447781 -0.047380005238191004 0.6910928052689747 144 238 144 0.5
0.008577327359906123 -0.047390103233639666 0.6912311291222846 144 238 144 0.5
0.0085926452233391 -0.047400172935248654 0.6913691394046417 144 238 144 0.5
0.008608217558376792 -0.047410212234752225 0.6915068415052462 144 238 144 0.5
0.008624047322649295 -0.04742021902388461 0.6916442408132984 144 238 144 0.5
0.008640137473786688 -0.04743019119438005 0.6917813427179984 144 238 144 0.5
0.00865649096941906 -0.04744012663797279 0.6919181526085465 144 238 144 0.5
0.008673110767176508 -0.04745002324639707 0.6920546758741429 144 238 144 0.5
0.008689999824689104 -0.04745987891138713 0.692190917903988 144 238 144 0.5
0.008707161099586943 -0.04746969152467721 0.692326884087282 144 238 144 0.5
0.00872459754950012 -0.047479458978001564 0.6924625798132251 144 238 144 0.5
0.008742312132058708 -0.047489179163094405 0.6925980104710178 144 238 144 0.5
0.008760307804892805 -0.04749884997169 0.6927331814498598 144 238 144 0.5
0.008778587525632488 -0.047508469295522576 0.692868098138952 144 238 144 0.5
0.008797154251907852 -0.04751803502632637 0.6930027659274943 144 238 144 0.5
0.008816010941348987 -0.047527545055835646 0.693137190204687 144 238 144 0.5
0.00883516055158597 -0.04753699727578461 0.6932713763597304 144 238 144 0.5
0.008854606040248894 -0.047546389577907515 0.6934053297818246 144 238 144 0.5
0.008874350364967852 -0.047555719853938624 0.6935390558601701 144 238 144 0.5
0.008894396483372922 -0.04756498599561215 0.693672559983967 144 238 144 0.5
0.0089147473530942 -0.04757418589466235 0.6938058475424157 144 238 144 0.5
0.008935405931761762 -0.047583317442823465 0.6939389239247163 144 238 144 0.5
0.0089563751770057 -0.047592378531829724 0.6940717945200692 144 238 144 0.5
0.008977658046456113 -0.047601367053415375 0.6942044647176745 144 238 144 0.5
0.008999257497743066 -0.04761028089931464 0.6943369399067323 144 238 144 0.5
0.009021176488496669 -0.04761911796126181 0.6944692254764433 144 238 144 0.5
0.00904341797634699 -0.047627876130991065 0.6946013268160075 144 238 144 0.5
0.009065984918924123 -0.04763655330023668 0.6947332493146251 144 238 144 0.5
0.00908888027385817 -0.0476451473607329 0.6948649983614967 144 238 144 0.5
0.009112106998779195 -0.047653656204213954 0.6949965793458222 144 238 144 0.5
0.009135668051317295 -0.04766207772241407 0.6951279976568018 144 238 144 0.5
0.009159566389102565 -0.0476704098070675 0.6952592586836359 144 238 144 0.5
0.009183804853000077 -0.04767865039982414 0.695390367824909 144 238 144 0.5
0.00920838202167216 -0.04768679926437415 0.6955213308217467 144 238 144 0.5
0.009233291092171398 -0.047694858464981074 0.6956521538477795 144 238 144 0.5
0.009258524917080378 -0.04770283021316518 0.6957828431043224 144 238 144 0.5
0.00928407634898169 -0.04771071672044677 0.69591340479269 144 238 144 0.5
0.009309938240457899 -0.04771852019834615 0.6960438451141971 144 238 144 0.5
0.009336103444091602 -0.0477262428583836 0.6961741702701588 144 238 144 0.5
0.009362564812465366 -0.047733886912079415 0.6963043864618894 144 238 144 0.5
0.009389315198161783 -0.047741454570953884 0.696434499890704 144 238 144 0.5
0.009416347453763439 -0.047748948046527316 0.6965645167579173 144 238 144 0.5
0.0094436544318529 -0.04775636955032 0.6966944432648443 144 238 144 0.5
0.009471228985012755 -0.047763721293852195 0.6968242856127993 144 238 144 0.5
0.009499063965825599 -0.04777100548864423 0.6969540500030974 144 238 144 0.5
0.00952715222687399 -0.04777822434621639 0.6970837426370533 144 238 144 0.5
0.009555486620740536 -0.04778538007808897 0.6972133697159819 144 238 144 0.5
0.009584060000007793 -0.04779247489578226 0.6973429374411978 144 238 144 0.5
0.009612865217258352 -0.04779951101081655 0.6974724520140159 144 238 144 0.5
0.00964189512507481 -0.04780649063471213 0.6976019196357509 144 238 144 0.5
0.00967114257603972 -0.047813415978989304 0.6977313465077176 144 238 144 0.5
0.009700600422735685 -0.04782028925516836 0.697860738831231 144 238 144 0.5
0.009730261517745292 -0.04782711267476959 0.6979901028076057 144 238 144 0.5
0.0097601187136511 -0.047833888449313286 0.6981194446381562 144 238 144 0.5
0.00979016486303571 -0.047840618790319735 0.6982487705241978 144 238 144 0.5
0.00982039281848169 -0.047847305909309246 0.6983780866670449 144 238 144 0.5
0.009850795432571625 -0.0478539520178021 0.6985073992680125 144 238 144 0.5
0.009881365557888112 -0.047860559327318586 0.6986367145284152 144 238 144 0.5
0.00991209604701371 -0.047867130049379016 0.6987660386495681 144 238 144 0.5
0.009942979752531021 -0.04787366639550366 0.6988953778327857 144 238 144 0.5
0.009974009527022603 -0.04788017057721282 0.6990247382793826 144 238 144 0.5
0.010005178223071058 -0.0478866448060268 0.6991541261906741 144 238 144 0.5
0.010036478693258966 -0.04789309129346588 0.6992835477679746 144 238 144 0.5
0.010067903790168897 -0.04789951225105035 0.699413009212599 144 238 144 0.5
0.01009944636638344 -0.047905909890300524 0.6995425167258621 144 238 144 0.5
0.010131099274485186 -0.047912286422736663 0.6996720765090786 144 238 144 0.5
0.010162855367056696 -0.04791864405987909 0.6998016947635634 144 238 144 0.5
0.010194707496680572 -0.04792498501324808 0.6999313776906311 144 238 144 0.5
0.010226648515939378 -0.04793131149436392 0.7000611314915965 144 238 144 0.5
0.010258671277415705 -0.04793762571474693 0.7001909623677748 144 238 144 0.5
0.010290768633692144 -0.047943929885917384 0.7003208765204801 144 238 144 0.5
0.010322933437351255 -0.04795022621939558 0.7004508801510277 144 238 144 0.5
0.010355158540975642 -0.04795651692670179 0.7005809794607323 144 238 144 0.5
0.010387436797147868 -0.047962804219356336 0.7007111806509086 144 238 144 0.5
0.010419761058450522 -0.04796909030887952 0.7008414899228712 144 238 144 0.5
0.010452124177466198 -0.04797537740679161 0.7009719134779354 144 238 144 0.5
0.010484519006777451 -0.047981667724612875 0.7011024575174153 144 238 144 0.5
0.010516938398966882 -0.04798796347386366 0.7012331282426261 144 238 144 0.5
0.01054937520661708 -0.047994266866064235 0.7013639318548827 144 238 144 0.5
0.010581822282310603 -0.04800058011273489 0.7014948745554995 144 238 144 0.5
0.010614272478630055 -0.048006905425395915 0.7016259625457913 144 238 144 0.5
0.010646718648158002 -0.04801324501556762 0.7017572020270735 144 238 144 0.5
0.010679153643477027 -0.048019601094770284 0.7018885992006602 144 238 144 0.5
0.010711570317169728 -0.0480259758745242 0.7020201602678664 144 238 144 0.5
0.010743961521818664 -0.04803237156634966 0.7021518914300069 144 238 144 0.5
0.010776320110006439 -0.04803879038176697 0.7022837988883965 144 238 144 0.5
0.010808638934315615 -0.048045234532296414 0.7024158888443499 144 238 144 0.5
0.010840910847328782 -0.04805170622945829 0.7025481674991821 144 238 144 0.5
0.010873128701628529 -0.04805820768477287 0.7026806410542076 144 238 144 0.5
0.01090528534979742 -0.048064741109760466 0.7028133157107412 144 238 144 0.5
0.010937373644418049 -0.048071308715941376 0.7029461976700979 144 238 144 0.5
0.01096938643807301 -0.048077912714835885 0.7030792931335925 144 238 144 0.5
0.011001316583344856 -0.04808455531796429 0.7032126083025394 144 238 144 0.5
0.011033156932816193 -0.048091238736846856 0.7033461493782537 144 238 144 0.5
0.011064900339069584 -0.04809796518300392 0.70347992256205 144 238 144 0.5
0.01109653965468762 -0.04810473686795574 0.7036139340552435 144 238 144 0.5
0.011128067732252896 -0.04811155600322264 0.7037481900591486 144 238 144 0.5
0.011159477424347964 -0.04811842480032488 0.70388269677508 144 238 144 0.5
0.011190761583555425 -0.04812534547078277 0.7040174604043524 144 238 144 0.5
0.01122191306245787 -0.04813232022611662 0.7041524871482813 144 238 144 0.5
0.011252924713637858 -0.048139351277846694 0.7042877832081808 144 238 144 0.5
0.011283789389677992 -0.04814644083749329 0.7044233547853659 144 238 144 0.5
0.01131449994316083 -0.048153591116576716 0.7045592080811512 144 238 144 0.5
0.01134504922666897 -0.04816080432661725 0.7046953492968518 144 238 144 0.5
0.011375430092784997 -0.0481680826791352 0.7048317846337823 144 238 144 0.5
0.011405635394091476 -0.04817542838565084 0.7049685202932575 144 238 144 0.5
0.011435657983171012 -0.04818284365768447 0.7051055624765921 144 238 144 0.5
0.011465490712606158 -0.04819033070675639 0.7052429173851009 144 238 144 0.5
0.011495126434979516 -0.04819789174438689 0.705380591220099 144 238 144 0.5
0.01152455800287367 -0.04820552898209626 0.7055185901829009 144 238 144 0.5
0.011553778268871188 -0.0482132446314048 0.7056569204748212 144 238 144 0.5
0.011582780085554656 -0.04822104090383279 0.7057955882971749 144 238 144 0.5
0.01161155630550667 -0.04822892001090053 0.7059345998512769 144 238 144 0.5
0.01164009978130979 -0.04823688416412832 0.7060739613384419 144 238 144 0.5
0.011668403365546615 -0.048244935575036445 0.7062136789599845 144 238 144 0.5
0.011696459910799711 -0.0482530764551452 0.7063537589172197 144 238 144 0.5
0.011724262269651668 -0.048261309015974876 0.7064942074114622 144 238 144 0.5
0.011751803294685077 -0.048269635469045766 0.7066350306440268 144 238 144 0.5
0.0117790758384825 -0.04827805802587816 0.7067762348162282 144 238 144 0.5
0.011806072753626542 -0.04828657889799236 0.7069178261293813 144 238 144 0.5
0.011832786892699758 -0.04829520029690864 0.7070598107848005 144 238 144 0.5
0.011859211108284744 -0.04830392443414733 0.7072021949838013 144 238 144 0.5
0.01188533825296409 -0.048312753521228685 0.7073449849276978 144 238 144 0.5
0.011911161179320366 -0.04832168976967302 0.7074881868178053 144 238 144 0.5
0.01193667273993615 -0.04833073539100061 0.7076318068554381 144 238 144 0.5
0.011961865787394043 -0.04833989259673177 0.7077758512419116 144 238 144 0.5
0.011986733174276603 -0.04834916359838677 0.70792032617854 144 238 144 0.5
0.012011267753166433 -0.048358550607485916 0.7080652378666382 144 238 144 0.5
0.012035462376646093 -0.048368055835549505 0.708210592507521 144 238 144 0.5
0.012059309897298181 -0.04837768149409783 0.7083563963025036 144 238 144 0.5
0.01208280316770528 -0.048387429794651174 0.7085026554529003 144 238 144 0.5
0.012105935040449958 -0.048397302948729834 0.7086493761600258 144 238 144 0.5
0.01212869836811481 -0.04840730316785409 0.7087965646251952 144 238 144 0.5
0.012151087809727287 -0.04841743191412634 0.7089442254193459 144 238 144 0.5
0.012173108551385812 -0.0484276862824104 0.7090923536123784 144 238 144 0.5
0.01219476958208566 -0.04843806178990832 0.7092409408419513 144 238 144 0.5
0.012216079895991787 -0.04844855395167748 0.7093899787410568 144 238 144 0.5
0.012237048487269113 -0.048459158282775236 0.7095394589426873 144 238 144 0.5
0.012257684350082596 -0.04846987029825895 0.7096893730798355 144 238 144 0.5
0.012277996478597182 -0.048480685513185996 0.7098397127854932 144 238 144 0.5
0.012297993866977818 -0.04849159944261374 0.7099904696926532 144 238 144 0.5
0.01231768550938945 -0.048502607601599544 0.7101416354343081 144 238 144 0.5
0.01233708039999704 -0.0485137055052008 0.7102932016434501 144 238 144 0.5
0.012356187532965498 -0.04852488866847484 0.7104451599530714 144 238 144 0.5
0.012375015902459794 -0.048536152606479054 0.7105975019961649 144 238 144 0.5
0.012393574502644862 -0.04854749283427078 0.7107502194057226 144 238 144 0.5
0.012411872327685659 -0.04855890486690741 0.7109033038147368 144 238 144 0.5
0.012429918371747136 -0.048570384219446316 0.7110567468562004 144 238 144 0.5
0.01244772162899422 -0.04858192640694486 0.7112105401631054 144 238 144 0.5
0.012465291093591863 -0.04859352694446039 0.7113646753684444 144 238 144 0.5
0.012482635759705011 -0.04860518134705029 0.7115191441052098 144 238 144 0.5
0.012499764621498616 -0.04861688512977192 0.711673938006394 144 238 144 0.5
0.012516686673137633 -0.048628633807682654 0.7118290487049895 144 238 144 0.5
0.012533410908786978 -0.048640422895839856 0.7119844678339883 144 238 144 0.5
0.012549946322611614 -0.04865224790930088 0.7121401870263833 144 238 144 0.5
0.012566301908776488 -0.048664104363123115 0.7122961979151666 144 238 144 0.5
0.012582486661446542 -0.0486759877723639 0.7124524921333308 144 238 144 0.5
0.012598509574786736 -0.04868789365208063 0.7126090613138683 144 238 144 0.5
0.012614379642961993 -0.04869981751733066 0.7127658970897712 144 238 144 0.5
0.012630105860137268 -0.04871175488317135 0.7129229910940323 144 238 144 0.5
0.012645697220477509 -0.04872370126466008 0.7130803349596438 144 238 144 0.5
0.012661162718147658 -0.04873565217685421 0.7132379203195981 144 238 144 0.5
0.012676511347312666 -0.0487476031348111 0.7133957388068877 144 238 144 0.5
0.012691752102137487 -0.04875954965358814 0.7135537820545055 144 238 144 0.5
0.012706893976787047 -0.04877148724824268 0.7137120416954428 144 238 144 0.5
0.012721945965426296 -0.04878341143383205 0.7138705093626925 144 238 144 0.5
0.012736917062220188 -0.048795317725413685 0.7140291766892476 144 238 144 0.5
0.012751816261333666 -0.04880720163804491 0.7141880353080997 144 238 144 0.5
0.012766652556931681 -0.04881905868678312 0.7143470768522416 144 238 144 0.5
0.012781434943179168 -0.04883088438668566 0.7145062929546656 144 238 144 0.5
0.012796172414241073 -0.04884267425280988 0.7146656752483642 144 238 144 0.5
0.012810873964282349 -0.04885442380021319 0.7148252153663299 144 238 144 0.5
0.012825548587467938 -0.04886612854395292 0.7149849049415546 144 238 144 0.5
0.012840205277962799 -0.04887778399908646 0.7151447356070314 144 238 144 0.5
0.012854853029931853 -0.04888938568067116 0.7153046989957523 144 238 144 0.5
0.01286950083754006 -0.048900929103764396 0.7154647867407097 144 238 144 0.5
0.012884157694952365 -0.048912409783423545 0.7156249904748962 144 238 144 0.5
0.01289883259633371 -0.048923823234705954 0.715785301831304 144 238 144 0.5
0.012913534535849057 -0.048935164972669 0.7159457124429258 144 238 144 0.5
0.012928272507663327 -0.04894643051237004 0.7161062139427536 144 238 144 0.5
0.01294305550594148 -0.04895761536886646 0.7162667979637802 144 238 144 0.5
0.012957892524848455 -0.0489687150572156 0.7164274561389977 144 238 144 0.5
0.012972792558549204 -0.048979725092474856 0.7165881801013988 144 238 144 0.5
0.01298776460120868 -0.04899064098970158 0.7167489614839757 144 238 144 0.5
0.013002817646991807 -0.04900145826395313 0.7169097919197207 144 238 144 0.5
0.01301796069006355 -0.04901217243028689 0.7170706630416267 144 238 144 0.5
0.013033202724588841 -0.049022779003760224 0.7172315664826856 144 238 144 0.5
0.013048552744732636 -0.04903327349943049 0.7173924938758902 144 238 144 0.5
0.013064019744659873 -0.049043651432355055 0.7175534368542323 144 238 144 0.5
0.013079612718535522 -0.04905390831759131 0.7177143870507053 144 238 144 0.5
0.013095340660524488 -0.04906403967019656 0.7178753360983003 144 238 144 0.5
0.013111212564791743 -0.04907404100522824 0.718036275630011 144 238 144 0.5
0.013127237425502229 -0.04908390783774368 0.718197197278829 144 238 144 0.5
0.01314342423682089 -0.04909363568280027 0.7183580926777472 144 238 144 0.5
0.01315978199291268 -0.04910322005545536 0.7185189534597576 144 238 144 0.5
0.013176319687942528 -0.04911265647076632 0.7186797712578528 144 238 144 0.5
0.013193046316075386 -0.0491219404437905 0.718840537705025 144 238 144 0.5
0.013209970871476205 -0.04913106748958531 0.719001244434267 144 238 144 0.5
0.013227102348309927 -0.04914003312320806 0.7191618830785708 144 238 144 0.5
0.01324444974074151 -0.04914883285971617 0.7193224452709293 144 238 144 0.5
0.013262022042935879 -0.049157462214166975 0.7194829226443343 144 238 144 0.5
0.013279828249057987 -0.04916591670161786 0.7196433068317787 144 238 144 0.5
0.013297877353272784 -0.04917419183712617 0.7198035894662547 144 238 144 0.5
0.013316178349745215 -0.049182283135749294 0.7199637621807548 144 238 144 0.5
0.013334740232640236 -0.049190186112544595 0.7201238166082714 144 238 144 0.5
0.01335357199612277 -0.04919789628256942 0.7202837443817968 144 238 144 0.5
0.01337268263435777 -0.04920540916088115 0.7204435371343233 144 238 144 0.5
0.013392081141510189 -0.04921272026253715 0.7206031864988436 144 238 144 0.5
0.013411776511744968 -0.04921982510259479 0.72076268410835 144 238 144 0.5
0.013431777739227055 -0.04922671919611143 0.7209220215958347 144 238 144 0.5
0.013452093818121411 -0.04923339805814446 0.7210811905942907 144 238 144 0.5
0.01347273374259295 -0.049239857203751215 0.7212401827367096 144 238 144 0.5
0.013493706506806636 -0.04924609214798908 0.7213989896560845 144 238 144 0.5
0.01351502110492741 -0.04925209840591541 0.7215576029854076 144 238 144 0.5
0.013536686531120223 -0.049257871492587584 0.721716014357671 144 238 144 0.5
0.013558711779550035 -0.04926340692306296 0.7218742154058675 144 238 144 0.5
0.013581105844381757 -0.049268700212398917 0.7220321977629893 144 238 144 0.5
0.01360387771978035 -0.049273746875652794 0.7221899530620288 144 238 144 0.5
0.013627036399910765 -0.04927854242788199 0.7223474729359786 144 238 144 0.5
0.013650590878937947 -0.04928308238414387 0.722504749017831 144 238 144 0.5
0.013674550151026855 -0.04928736225949577 0.7226617729405785 144 238 144 0.5
0.013698923210342403 -0.04929137756899508 0.722818536337213 144 238 144 0.5
0.013723719051049554 -0.04929512382769917 0.7229750308407277 144 238 144 0.5
0.013748946667313253 -0.04929859655066539 0.7231312480841146 144 238 144 0.5
0.013774615053298446 -0.049301791252951116 0.7232871797003658 144 238 144 0.5
0.013800733203170094 -0.04930470344961371 0.7234428173224743 144 238 144 0.5
0.013827310111093116 -0.04930732865571057 0.7235981525834322 144 238 144 0.5
0.013854354771232463 -0.04930966238629901 0.723753177116232 144 238 144 0.5
0.013881876177753093 -0.04931170015643645 0.7239078825538661 144 238 144 0.5
0.013909883324819941 -0.0493134374811802 0.7240622605293268 144 238 144 0.5
0.013938385206597981 -0.049314869875587676 0.7242163026756067 144 238 144 0.5
0.013967390817252116 -0.04931599285471622 0.7243700006256979 144 238 144 0.5
0.013996909150947307 -0.0493168019336232 0.724523346012593 144 238 144 0.5
0.014026949102513663 -0.049317292710484587 0.7246763306014271 144 238 144 0.5
0.014057513904645649 -0.049317465521278435 0.7248289536895303 144 238 144 0.5
0.014088598180894559 -0.04931732790569862 0.7249812260267567 144 238 144 0.5
0.014120195833439436 -0.04931688800704857 0.7251331593225843 144 238 144 0.5
0.014152300764459246 -0.049316153968631725 0.7252847652864902 144 238 144 0.5
0.014184906876133031 -0.049315133933751476 0.7254360556279521 144 238 144 0.5
0.014218008070639818 -0.049313836045711296 0.7255870420564478 144 238 144 0.5
0.014251598250158612 -0.04931226844781456 0.7257377362814544 144 238 144 0.5
0.014285671316868464 -0.049310439283364746 0.72588815001245 144 238 144 0.5
0.014320221172948339 -0.049308356695665245 0.7260382949589117 144 238 144 0.5
0.014355241720577283 -0.04930602882801951 0.7261881828303173 144 238 144 0.5
0.014390726861934312 -0.04930346382373094 0.7263378253361441 144 238 144 0.5
0.014426670499198444 -0.04930066982610297 0.72648723418587 144 238 144 0.5
0.014463066534548718 -0.04929765497843904 0.7266364210889724 144 238 144 0.5
0.014499908870164105 -0.04929442742404255 0.7267853977549286 144 238 144 0.5
0.014537191408223649 -0.049290995306216966 0.7269341758932167 144 238 144 0.5
0.014574908050906363 -0.04928736676826567 0.7270827672133136 144 238 144 0.5
0.014613052700391272 -0.04928354995349212 0.7272311834246973 144 238 144 0.5
0.014651619258857418 -0.04927955300519974 0.7273794362368454 144 238 144 0.5
0.014690601628483763 -0.049275384066691935 0.7275275373592355 144 238 144 0.5
0.014729993711449353 -0.04927105128127216 0.7276754985013446 144 238 144 0.5
0.014769789409933209 -0.049266562792243826 0.7278233313726508 144 238 144 0.5
0.014809982626114344 -0.049261926742910356 0.7279710476826313 144 238 144 0.5
0.014850567262171774 -0.04925715127657518 0.728118659140764 144 238 144 0.5
0.01489153722028455 -0.049252244536541714 0.7282661774565263 144 238 144 0.5
0.014932886402631634 -0.04924721466611341 0.7284136143393957 144 238 144 0.5
0.014974608711392069 -0.04924206980859368 0.7285609814988498 144 238 144 0.5
0.015016698048744875 -0.04923681810728595 0.7287082906443662 144 238 144 0.5
0.015059148316869067 -0.04923146770549365 0.7288555534854222 144 238 144 0.5
0.015101953417943698 -0.0492260267465202 0.7290027817314958 144 238 144 0.5
0.015145107254147716 -0.049220503373669025 0.7291499870920642 144 238 144 0.5
0.01518860372766018 -0.04921490573024356 0.729297181276605 144 238 144 0.5
0.015232436740660103 -0.04920924195954723 0.7294443759945959 144 238 144 0.5
0.0152766001953265 -0.04920352020488346 0.7295915829555143 144 238 144 0.5
0.01532108799383843 -0.04919774860955567 0.7297388138688381 144 238 144 0.5
0.015365894038374838 -0.049191935316867295 0.7298860804440445 144 238 144 0.5
0.015411012231114771 -0.04918608847012176 0.7300333943906109 144 238 144 0.5
0.015456436474237256 -0.04918021621262248 0.7301807674180151 144 238 144 0.5
0.015502160669921312 -0.04917432668767291 0.7303282112357349 144 238 144 0.5
0.015548178720345977 -0.04916842803857644 0.7304757375532476 144 238 144 0.5
0.015594484527690218 -0.049162528408636524 0.7306233580800308 144 238 144 0.5
0.015641071994133074 -0.04915663594115659 0.7307710845255617 144 238 144 0.5
0.01568793502185357 -0.04915075877944003 0.7309189285993183 144 238 144 0.5
0.01573506751303072 -0.0491449050667903 0.7310669020107781 144 238 144 0.5
0.01578246336984358 -0.04913908294651082 0.7312150164694187 144 238 144 0.5
0.015830116494471094 -0.04913330056190502 0.7313632836847173 144 238 144 0.5
0.015878020789092315 -0.049127566056276335 0.7315117153661518 144 238 144 0.5
0.01592617015588627 -0.049121887572928166 0.7316603232231995 144 238 144 0.5
0.015974558497031964 -0.04911627325516396 0.7318091189653383 144 238 144 0.5
0.016023179714708423 -0.04911073124628713 0.7319581143020455 144 238 144 0.5
0.016072027711094696 -0.049105269689601105 0.7321073209427987 144 238 144 0.5
0.01612109638836973 -0.04909989672840932 0.7322567505970754 144 238 144 0.5
0.016170379648712582 -0.0490946205060152 0.7324064149743533 144 238 144 0.5
0.01621987139430227 -0.049089449165722165 0.7325563257841098 144 238 144 0.5
0.01626956552731781 -0.049084390850833645 0.7327064947358227 144 238 144 0.5
0.016319455949938253 -0.049079453704653074 0.7328569335389694 144 238 144 0.5
0.01636953656434255 -0.04907464587048385 0.7330076539030271 144 238 144 0.5
0.016419801272709745 -0.04906997549162944 0.7331586675374739 144 238 144 0.5
0.01647024397721887 -0.049065450711393246 0.7333099861517873 144 238 144 0.5
0.016520858580048935 -0.0490610796730787 0.7334616214554445 144 238 144 0.5
0.016571638983378996 -0.049056870519989214 0.7336135851579233 144 238 144 0.5
0.016622579089387992 -0.04905283139542824 0.7337658889687012 144 238 144 0.5
0.016673672800254988 -0.049048970442699194 0.7339185445972558 144 238 144 0.5
0.016724914018158996 -0.049045295805105485 0.7340715637530647 144 238 144 0.5
0.01677629664527903 -0.04904181562595057 0.7342249581456053 144 238 144 0.5
0.016827814583794152 -0.04903853804853785 0.7343787394843553 144 238 144 0.5
0.016879461735883308 -0.04903547121617078 0.7345329194787921 144 238 144 0.5
0.016931232003725538 -0.04903262327215275 0.7346875098383933 144 238 144 0.5
0.016983119289499873 -0.04903000235978721 0.7348425222726365 144 238 144 0.5
0.01703511749538533 -0.04902761662237759 0.7349979684909993 144 238 144 0.5
0.01708722052356092 -0.049025474203227296 0.735153860202959 144 238 144 0.5
0.017139422276205706 -0.04902358324563977 0.7353102091179938 144 238 144 0.5
0.017191716655498627 -0.04902195189291844 0.7354670269455805 144 238 144 0.5
0.017244097563618735 -0.04902058828836672 0.7356243253951971 144 238 144 0.5
0.017296558902745056 -0.04901950057528804 0.7357821161763209 144 238 144 0.5
0.017349094575056602 -0.049018696896985826 0.7359404109984296 144 238 144 0.5
0.01740169848273243 -0.049018185396763524 0.7360992215710009 144 238 144 0.5
0.01745436452795148 -0.049017974217924545 0.7362585596035123 144 238 144 0.5
0.017507086612892814 -0.0490180715037723 0.7364184368054407 144 238 144 0.5
0.017559858639735443 -0.04901848539761024 0.7365788648862646 144 238 144 0.5
0.017612674510658392 -0.04901922404274178 0.7367398555554612 144 238 144 0.5
0.01766552812784071 -0.04902029558247036 0.736901420522508 144 238 144 0.5
0.017718413393461342 -0.049021708160099375 0.7370635714968824 144 238 144 0.5
0.01777132420969934 -0.04902346991893229 0.7372263201880621 144 238 144 0.5
0.017824254478733727 -0.0490255890022725 0.7373896783055247 144 238 144 0.5
0.01787719810274352 -0.04902807355342344 0.7375536575587478 144 238 144 0.5
0.017930148983907768 -0.04903093171568856 0.7377182696572089 144 238 144 0.5
0.017983101024405423 -0.049034171632371254 0.7378835263103855 144 238 144 0.5
0.01803604812641554 -0.049037801446774956 0.7380494392277551 144 238 144 0.5
0.01808898419211713 -0.04904182930220311 0.7382160201187955 144 238 144 0.5
0.018141903123689213 -0.049046263341959134 0.738383280692984 144 238 144 0.5
0.018194798823310848 -0.049051111709346444 0.7385512326597984 144 238 144 0.5
0.018247665193160973 -0.04905638254766846 0.7387198877287159 144 238 144 0.5
0.018300496135418648 -0.04906208400022864 0.7388892576092144 144 238 144 0.5
0.018353285552262885 -0.049068224210330386 0.7390593540107713 144 238 144 0.5
0.018406027345872704 -0.04907481132127713 0.739230188642864 144 238 144 0.5
0.018458715418427127 -0.0490818534763723 0.7394017732149705 144 238 144 0.5
0.018511343672105208 -0.04908935881891932 0.7395741194365681 144 238 144 0.5
0.018563906009085886 -0.04909733549222162 0.7397472390171341 144 238 144 0.5
0.01861639633154822 -0.049105791639582626 0.7399211436661465 144 238 144 0.5
0.01866880854167123 -0.04911473540430577 0.7400958450930826 144 238 144 0.5
0.018721136759417504 -0.04912417347109661 0.7402713519020704 144 238 144 0.5
0.01877337668666154 -0.04913410192986166 0.7404476501409494 144 238 144 0.5
0.018825524723620413 -0.04914451219338176 0.7406247158999755 144 238 144 0.5
0.018877577273582982 -0.04915539565386544 0.7408025252256062 144 238 144 0.5
0.018929530739838066 -0.04916674370352115 0.7409810541642987 144 238 144 0.5
0.018981381525674478 -0.04917854773455739 0.7411602787625104 144 238 144 0.5
0.01903312603438107 -0.049190799139182666 0.7413401750666991 144 238 144 0.5
0.019084760669246588 -0.04920348930960545 0.7415207191233218 144 238 144 0.5
0.01913628183355989 -0.04921660963803423 0.7417018869788362 144 238 144 0.5
0.019187685930609783 -0.0492301515166775 0.7418836546796995 144 238 144 0.5
0.01923896936368509 -0.049244106337743745 0.7420659982723691 144 238 144 0.5
0.019290128536074664 -0.04925846549344148 0.7422488938033027 144 238 144 0.5
0.01934115985106725 -0.04927322037597917 0.7424323173189574 144 238 144 0.5
0.01939205971195171 -0.049288362377565315 0.7426162448657909 144 238 144 0.5
0.019442824522016844 -0.04930388289040838 0.7428006524902604 144 238 144 0.5
0.019493450684551477 -0.04931977330671688 0.7429855162388233 144 238 144 0.5
0.01954393460284443 -0.049336025018699305 0.7431708121579372 144 238 144 0.5
0.019594272680184554 -0.04935262941856414 0.7433565162940594 144 238 144 0.5
0.01964446131986059 -0.049369577898519874 0.7435426046936473 144 238 144 0.5
0.019694496925161398 -0.04938686185077498 0.7437290534031583 144 238 144 0.5
0.019744375899375787 -0.049404472667537974 0.7439158384690499 144 238 144 0.5
0.019794094645792577 -0.04942240174101732 0.7441029359377794 144 238 144 0.5
0.01984364956770062 -0.049440640463421545 0.7442903218558045 144 238 144 0.5
0.019893037068388665 -0.0494591802269591 0.7444779722695821 144 238 144 0.5
0.019942253551145567 -0.0494780124238385 0.7446658632255703 144 238 144 0.5
0.01999129541926014 -0.04949712844626821 0.7448539707702257 144 238 144 0.5
0.020040159076021195 -0.04951651968645675 0.7450422709500064 144 238 144 0.5
0.020088840924717587 -0.04953617753661259 0.7452307398113698 144 238 144 0.5
0.020137337368638077 -0.04955609338894421 0.7454193534007727 144 238 144 0.5
0.0201856448110715 -0.04957625863566011 0.7456080877646728 144 238 144 0.5
0.02023375965530668 -0.04959666466896881 0.7457969189495279 144 238 144 0.5
0.02028167830463243 -0.04961730288107874 0.7459858230017951 144 238 144 0.5
0.02032939716233761 -0.049638164664198445 0.7461747759679319 144 238 144 0.5
0.02037691263171096 -0.04965924141053638 0.7463637538943955 144 238 144 0.5
0.020424221116041332 -0.04968052451230105 0.7465527328276436 144 238 144 0.5
0.02047131901861755 -0.049702005361700934 0.7467416888141333 144 238 144 0.5
0.020518202742728427 -0.049723675350944525 0.7469305979003222 144 238 144 0.5
0.020564868691662807 -0.04974552587224033 0.747119436132668 144 238 144 0.5
0.020611313268709453 -0.049767548317796804 0.7473081795576275 144 238 144 0.5
0.020657532877157204 -0.04978973407982246 0.7474968042216587 144 238 144 0.5
0.020703523920294883 -0.049812074550525796 0.7476852861712185 144 238 144 0.5
0.020749282801411303 -0.049834561122115276 0.7478736014527649 144 238 144 0.5
0.020794805923795293 -0.0498571851867994 0.7480617261127548 144 238 144 0.5
0.020840089690735687 -0.049879938136786685 0.748249636197646 144 238 144 0.5
0.020885130505521245 -0.049902811364285565 0.7484373077538956 144 238 144 0.5
0.020929924771440817 -0.04992579626150458 0.7486247168279611 144 238 144 0.5
0.02097446889178322 -0.04994888422065218 0.7488118394662998 144 238 144 0.5
0.021018759269837265 -0.04997206663393689 0.7489986517153695 144 238 144 0.5
0.021062792308891805 -0.049995334893567195 0.7491851296216273 144 238 144 0.5
0.021106564412235598 -0.05001868039175157 0.7493712492315309 144 238 144 0.5
0.02115007198315749 -0.05004209452069848 0.7495569865915372 144 238 144 0.5
0.021193311424946296 -0.05006556867261646 0.7497423177481041 144 238 144 0.5
0.021236279140890834 -0.05008909423971398 0.7499272187476889 144 238 144 0.5
0.02127897153427995 -0.050112662614199555 0.750111665636749 144 238 144 0.5
0.0213213850084024 -0.050136265188281626 0.7502956344617415 144 238 144 0.5
0.02136351596654704 -0.050159893354168705 0.7504791012691244 144 238 144 0.5
0.021405360812002675 -0.050183538504069286 0.7506620421053546 144 238 144 0.5
0.02144691594805813 -0.05020719203019186 0.7508444330168897 144 238 144 0.5
0.02148817777800225 -0.05023084532474493 0.7510262500501875 144 238 144 0.5
0.021529142705123794 -0.050254489779936955 0.7512074692517048 144 238 144 0.5
0.021569807132711602 -0.050278116787976425 0.7513880666678993 144 238 144 0.5
0.021610167464054503 -0.05030171774107186 0.7515680183452282 144 238 144 0.5
0.021650220102441296 -0.05032528403143172 0.7517473003301494 144 238 144 0.5
0.021689961451160825 -0.05034880705126452 0.75192588866912 144 238 144 0.5
0.021729387913501905 -0.050372278192778744 0.7521037594085972 144 238 144 0.5
0.021768495892753318 -0.050395688848182844 0.7522808885950387 144 238 144 0.5
0.021807281792203898 -0.050419030409685366 0.7524572522749019 144 238 144 0.5
0.021845742015142475 -0.050442294269494765 0.7526328264946444 144 238 144 0.5
0.02188387296485785 -0.050465471819819537 0.7528075873007231 144 238 144 0.5
0.02192167104463888 -0.050488554452868185 0.752981510739596 144 238 144 0.5
0.021959132657774324 -0.05051153356084918 0.7531545728577199 144 238 144 0.5
0.02199625420755302 -0.050534400535971004 0.7533267497015527 144 238 144 0.5
0.022033032097263792 -0.05055714677044218 0.7534980173175516 144 238 144 0.5
0.022069462730195458 -0.05057976365647117 0.7536683517521741 144 238 144 0.5
0.02210554250963686 -0.050602242586266485 0.7538377290518776 144 238 144 0.5
0.022141267838876752 -0.05062457495203658 0.7540061252631195 144 238 144 0.5
0.02217663512120399 -0.05064675214598997 0.7541735164323572 144 238 144 0.5
0.022211640759907395 -0.050668765560335144 0.7543398786060482 144 238 144 0.5
0.022246281158275774 -0.0506906065872806 0.7545051878306498 144 238 144 0.5
0.022280552719597967 -0.050712266619034815 0.7546694201526196 144 238 144 0.5
0.02231445184716275 -0.05073373704780627 0.7548325516184147 144 238 144 0.5
0.022347974944258955 -0.05075500926580345 0.7549945582744926 144 238 144 0.5
0.022381118414175408 -0.05077607466523487 0.7551554161673109 144 238 144 0.5
0.02241387866020093 -0.05079692463830902 0.755315101343327 144 238 144 0.5
0.022446252085624327 -0.05081755057723437 0.7554735898489982 144 238 144 0.5
0.022478235093734446 -0.05083794387421943 0.7556308577307821 144 238 144 0.5
0.022509824087820048 -0.050858095921472654 0.7557868810351356 144 238 144 0.5
0.022541015471169986 -0.05087799811120256 0.7559416358085168 144 238 144 0.5
0.022571805647073073 -0.050897641835617624 0.7560950980973826 144 238 144 0.5
0.022602191018818125 -0.05091701848692636 0.7562472439481909 144 238 144 0.5
0.022632167989693978 -0.050936119457337246 0.7563980494073986 144 238 144 0.5
0.02266173296298941 -0.05095493613905875 0.7565474905214634 144 238 144 0.5
0.022690882341993256 -0.050973459924299386 0.7566955433368426 144 238 144 0.5
0.02271961252999434 -0.05099168220526763 0.7568421838999938 144 238 144 0.5
0.022747919930281472 -0.05100959437417197 0.7569873882573741 144 238 144 0.5
0.02277580094614349 -0.051027187823220924 0.7571311324554415 144 238 144 0.5
0.022803251980869174 -0.051044453944622946 0.7572733925406526 144 238 144 0.5
0.02283026943774736 -0.05106138413058654 0.7574141445594654 144 238 144 0.5
0.02285684972006686 -0.051077969773320187 0.7575533645583371 144 238 144 0.5
0.022882989231116504 -0.051094202265032404 0.7576910285837254 144 238 144 0.5
0.022908684430446576 -0.05111007304805211 0.7578271128707209 144 238 144 0.5
0.022933937393794835 -0.05112557856788076 0.757961612484368 144 238 144 0.5
0.022958760515925658 -0.051140724462709765 0.7580945570873436 144 238 144 0.5
0.02298316729899766 -0.051155517357251136 0.7582259800551969 144 238 144 0.5
0.023007171245169458 -0.05116996387621687 0.7583559147634763 144 238 144 0.5
0.0230307858565997 -0.05118407064431896 0.7584843945877303 144 238 144 0.5
0.02305402463544697 -0.051197844286269376 0.7586114529035077 144 238 144 0.5
0.02307690108386991 -0.05121129142678014 0.7587371230863568 144 238 144 0.5
0.023099428704027147 -0.05122441869056323 0.7588614385118265 144 238 144 0.5
0.023121620998077293 -0.05123723270233066 0.7589844325554652 144 238 144 0.5
0.02314349146817898 -0.0512497400867944 0.7591061385928217 144 238 144 0.5
0.023165053616490835 -0.05126194746866648 0.7592265899994449 144 238 144 0.5
0.023186320945171465 -0.05127386147265886 0.7593458201508827 144 238 144 0.5
0.0232073069563795 -0.05128548872348355 0.7594638624226843 144 238 144 0.5
0.02322802515227356 -0.05129683584585256 0.7595807501903981 144 238 144 0.5
0.02324848903501227 -0.05130790946447786 0.7596965168295726 144 238 144 0.5
0.023268712106754273 -0.05131871620407146 0.7598111957157571 144 238 144 0.5
0.023288707869658146 -0.051329262689345324 0.7599248202244991 144 238 144 0.5
0.023308489825882545 -0.051339555545011496 0.7600374237313483 144 238 144 0.5
0.023328071477586088 -0.05134960139578195 0.7601490396118527 144 238 144 0.5
0.023347466326927385 -0.05135940686636866 0.7602597012415607 144 238 144 0.5
0.023366687876065086 -0.05136897858148366 0.7603694419960217 144 238 144 0.5
0.023385749627157785 -0.051378323165838916 0.7604782952507839 144 238 144 0.5
0.023404665082364107 -0.05138744724414643 0.7605862943813958 144 238 144 0.5
0.02342344774384269 -0.0513963574411182 0.7606934727634062 144 238 144 0.5
0.02344211111375215 -0.05140506038146623 0.7607998637723635 144 238 144 0.5
0.023460668694251115 -0.051413562689902485 0.7609055007838166 144 238 144 0.5
0.02347913398749819 -0.05142187099113899 0.7610104171733141 144 238 144 0.5
0.023497520495652017 -0.05142999190988775 0.7611146463164046 144 238 144 0.5
0.02351584172087121 -0.051437932070860705 0.7612182215886365 144 238 144 0.5
0.02353411116531438 -0.0514456980987699 0.7613211763655584 144 238 144 0.5
0.02355234233114017 -0.05145329661832731 0.7614235440227192 144 238 144 0.5
0.02357054872050721 -0.051460734254244946 0.7615253579356676 144 238 144 0.5
0.023588743835574088 -0.051468017631234785 0.7616266514799517 144 238 144 0.5
0.023606941178499458 -0.05147515337400884 0.7617274580311209 144 238 144 0.5
0.023625154251441922 -0.05148214810727908 0.7618278109647231 144 238 144 0.5
0.023643396556560108 -0.051489008455757525 0.7619277436563071 144 238 144 0.5
0.02366168159601266 -0.051495741044156156 0.7620272894814217 144 238 144 0.5
0.023680022871958167 -0.05150235249718698 0.7621264818156156 144 238 144 0.5
0.02369843388655527 -0.05150884943956197 0.7622253540344371 144 238 144 0.5
0.023716928141962586 -0.05151523849599315 0.762323939513435 144 238 144 0.5
0.023735519140338737 -0.051521526291192485 0.7624222716281578 144 238 144 0.5
0.023754220383842367 -0.05152771944987199 0.7625203837541543 144 238 144 0.5
0.023773045374632068 -0.051533824596743674 0.7626183092669733 144 238 144 0.5
0.02379200761486647 -0.05153984835651949 0.7627160815421627 144 238 144 0.5
0.023811120606704206 -0.05154579735391147 0.7628137339552719 144 238 144 0.5
0.023830397852303887 -0.05155167821363158 0.7629112998818489 144 238 144 0.5
0.02384985285382416 -0.051557497560391845 0.7630088126974429 144 238 144 0.5
0.023869499113423613 -0.051563262018904245 0.7631063057776022 144 238 144 0.5
0.023889350133260885 -0.05156897821388077 0.7632038124978753 144 238 144 0.5
0.0239094194154946 -0.051574652770033425 0.7633013662338111 144 238 144 0.5
0.02392972046228338 -0.0515802923120742 0.763399000360958 144 238 144 0.5
0.023950266775785864 -0.051585903464715095 0.7634967482548649 144 238 144 0.5
0.023971071858160636 -0.0515914928526681 0.7635946432910801 144 238 144 0.5
0.02399214921156634 -0.0515970671006452 0.7636927188451524 144 238 144 0.5
0.024013512338161604 -0.0516026328333584 0.7637910082926302 144 238 144 0.5
0.024035174740105046 -0.051608196675519705 0.7638895450090627 144 238 144 0.5
0.02405714991955529 -0.051613765251841096 0.7639883623699978 144 238 144 0.5
0.02407945137867096 -0.05161934518703457 0.7640874937509845 144 238 144 0.5
0.024102092619610667 -0.051624943105812136 0.7641869725275715 144 238 144 0.5
0.024125087144533045 -0.051630565632885775 0.7642868320753072 144 238 144 0.5
0.02414844845559671 -0.05163621939296748 0.7643871057697403 144 238 144 0.5
0.024172190054960283 -0.051641911010769245 0.7644878269864193 144 238 144 0.5
0.02419632544478242 -0.05164764711100309 0.7645890291008933 144 238 144 0.5
0.02422086812722169 -0.05165343431838097 0.7646907454887102 144 238 144 0.5
0.02424583160443674 -0.05165927925761491 0.7647930095254192 144 238 144 0.5
0.024271229378586195 -0.0516651885534169 0.7648958545865685 144 238 144 0.5
