ply
format ascii 1.0
element vertex 628
property float x
property float y
property float z
property uchar red
property uchar green
property uchar blue
property float size
end_header
0.2829482455076685 0.06039165520560434 0.38275177438543123 144 238 144 0.5
0.2829477056320321 0.060394783909086376 0.38275560861606395 144 238 144 0.5
0.2829471862287265 0.06039772162296184 0.38275869602543694 144 238 144 0.5
0.2829466865968721 0.06040046103195965 0.3827610098913289 144 238 144 0.5
0.2829462060355893 0.06040299482080873 0.3827625234915182 144 238 144 0.5
0.2829457438439984 0.060405315674238 0.3827632101037836 144 238 144 0.5
0.28294529932121976 0.060407416276976364 0.38276304300590364 144 238 144 0.5
0.28294487176637384 0.06040928931375275 0.382761995475657 144 238 144 0.5
0.2829444604785808 0.060410927469296063 0.38276004079082193 144 238 144 0.5
0.2829440647569613 0.060412323428335246 0.3827571522291773 144 238 144 0.5
0.2829436839006354 0.06041346987559921 0.3827533030685016 144 238 144 0.5
0.2829433172087236 0.06041435949581684 0.38274846658657324 144 238 144 0.5
0.28294296398034635 0.0604149849737171 0.3827426160611711 144 238 144 0.5
0.2829426235146238 0.06041533899402886 0.38273572477007356 144 238 144 0.5
0.2829422951106765 0.060415414241481086 0.38272776599105923 144 238 144 0.5
0.28294197806762467 0.06041520340080266 0.38271871300190663 144 238 144 0.5
0.2829416716845888 0.060414699156722526 0.3827085390803944 144 238 144 0.5
0.28294137526068913 0.06041389419396957 0.38269721750430113 144 238 144 0.5
0.2829410880950461 0.06041278119727275 0.38268472155140537 144 238 144 0.5
0.2829408094867801 0.06041135285136096 0.3826710244994857 144 238 144 0.5
0.28294053873501135 0.06040960184096311 0.3826560996263207 144 238 144 0.5
0.2829402751388604 0.06040752085080814 0.38263992020968884 144 238 144 0.5
0.28294001799744745 0.06040510256562494 0.3826224595273688 144 238 144 0.5
0.28293976660989295 0.06040233967014246 0.38260369085713924 144 238 144 0.5
0.2829395202804431 0.06039922487622637 0.3825835875782938 144 238 144 0.5
0.2829392788973155 0.06039575398733394 0.3825621346353774 144 238 144 0.5
0.2829390434638898 0.06039192871068092 0.38253933905814513 144 238 144 0.5
0.28293881510905877 0.0603877514179588 0.38251521036207137 144 238 144 0.5
0.282938594961715 0.060383224480859046 0.38248975806263014 144 238 144 0.5
0.2829383841507511 0.060378350271073106 0.3824629916752958 144 238 144 0.5
0.28293818380505986 0.06037313116029248 0.38243492071554236 144 238 144 0.5
0.2829379950535338 0.06036756952020858 0.38240555469884424 144 238 144 0.5
0.2829378190250657 0.06036166772251293 0.3823749031406756 144 238 144 0.5
0.28293765684854816 0.060355428138896966 0.3823429755565106 144 238 144 0.5
0.28293750965287384 0.060348853141052164 0.3823097814618236 144 238 144 0.5
0.28293737856693535 0.06034194510066997 0.38227533037208866 144 238 144 0.5
0.2829372647196254 0.06033470638944187 0.38223963180278 144 238 144 0.5
0.2829371692398367 0.06032713937905934 0.38220269526937206 144 238 144 0.5
0.2829370932564618 0.060319246441213815 0.3821645302873386 144 238 144 0.5
0.2829370378983935 0.06031102994759678 0.3821251463721543 144 238 144 0.5
0.2829370042945243 0.06030249226989971 0.3820845530392932 144 238 144 0.5
0.28293699357374696 0.06029363577981405 0.38204275980422936 144 238 144 0.5
0.28293700686495404 0.06028446284903129 0.3819997761824373 144 238 144 0.5
0.2829370452970383 0.060274975849242865 0.38195561168939096 144 238 144 0.5
0.2829371099988924 0.06026517715214028 0.38191027584056475 144 238 144 0.5
0.282937202099409 0.060255069129414966 0.38186377815143285 144 238 144 0.5
0.2829373227274806 0.06024465415275842 0.3818161281374694 144 238 144 0.5
0.28293747301200006 0.06023393459386209 0.38176733531414864 144 238 144 0.5
0.2829376540818599 0.06022291282441745 0.38171740919694486 144 238 144 0.5
0.2829378670659529 0.06021159121611596 0.3816663593013322 144 238 144 0.5
0.2829381130931717 0.060199972140649066 0.3816141951427848 144 238 144 0.5
0.2829383932924089 0.060188057969708275 0.38156092623677706 144 238 144 0.5
0.2829387087925571 0.06017585107498505 0.38150656209878314 144 238 144 0.5
0.2829390607225091 0.06016335382817081 0.38145111224427714 144 238 144 0.5
0.2829394502111574 0.06015056860095708 0.3813945861887334 144 238 144 0.5
0.2829398783873948 0.06013749776503528 0.38133699344762606 144 238 144 0.5
0.28294034638011395 0.06012414369209689 0.3812783435364293 144 238 144 0.5
0.28294085531820745 0.06011050875383341 0.38121864597061755 144 238 144 0.5
0.28294140633056797 0.06009659532193628 0.3811579102656649 144 238 144 0.5
0.28294200054608815 0.06008240576809695 0.3810961459370455 144 238 144 0.5
0.28294263909366074 0.06006794246400692 0.3810333625002336 144 238 144 0.5
0.2829433231021782 0.060053207781357594 0.3809695694707033 144 238 144 0.5
0.2829440537005334 0.06003820409184052 0.38090477636392905 144 238 144 0.5
0.28294483201761894 0.06002293376714712 0.38083899269538507 144 238 144 0.5
0.28294565918232745 0.06000739917896887 0.3807722279805454 144 238 144 0.5
0.28294653632355155 0.059991602698997226 0.3807044917348843 144 238 144 0.5
0.28294746457018394 0.059975546698923674 0.38063579347387605 144 238 144 0.5
0.2829484450511173 0.05995923355043963 0.38056614271299466 144 238 144 0.5
0.28294947889524436 0.05994266562523664 0.3804955489677147 144 238 144 0.5
0.2829505672314576 0.059925845295006115 0.38042402175351014 144 238 144 0.5
0.28295171118864976 0.059908774931439535 0.3803515705858552 144 238 144 0.5
0.2829529118957136 0.05989145690622837 0.3802782049802243 144 238 144 0.5
0.2829541704815416 0.059873893591064084 0.38020393445209144 144 238 144 0.5
0.28295548807502646 0.05985608735763811 0.3801287685169307 144 238 144 0.5
0.28295686580506096 0.05983804057764197 0.3800527166902166 144 238 144 0.5
0.2829583048005377 0.05981975562276712 0.37997578848742347 144 238 144 0.5
0.2829598061903493 0.059801234864705004 0.37989799342402514 144 238 144 0.5
0.2829613711033884 0.059782480675147104 0.3798193410154961 144 238 144 0.5
0.2829630006685477 0.05976349542578485 0.37973984077731027 144 238 144 0.5
0.28296469601471985 0.059744281488309764 0.37965950222494205 144 238 144 0.5
0.2829664582707976 0.059724841234413274 0.3795783348738658 144 238 144 0.5
0.28296828856567346 0.059705177035786886 0.3794963482395557 144 238 144 0.5
0.28297018802824014 0.05968529126412202 0.3794135518374857 144 238 144 0.5
0.2829721577873903 0.05966518629111015 0.37932995518313023 144 238 144 0.5
0.28297419897201664 0.059644864488442736 0.3792455677919634 144 238 144 0.5
0.2829763127110118 0.05962432822781131 0.3791603991794596 144 238 144 0.5
0.2829785001332684 0.05960357988090726 0.3790744588610928 144 238 144 0.5
0.2829807623676791 0.0595826218194221 0.3789877563523374 144 238 144 0.5
0.28298310054313663 0.059561456415047266 0.37890030116866763 144 238 144 0.5
0.2829855157885336 0.05954008603947425 0.37881210282555755 144 238 144 0.5
0.2829880092327626 0.05951851306439447 0.37872317083848145 144 238 144 0.5
0.28299058200471644 0.059496739861499455 0.3786335147229135 144 238 144 0.5
0.2829932352332877 0.05947476880248066 0.3785431439943282 144 238 144 0.5
0.282995970047369 0.05945260225902953 0.37845206816819943 144 238 144 0.5
0.28299878757585295 0.059430242602837524 0.3783602967600015 144 238 144 0.5
0.28300168894763245 0.059407692205596094 0.3782678392852085 144 238 144 0.5
0.2830046752915999 0.05938495343899677 0.37817470525929503 144 238 144 0.5
0.2830077477366481 0.05936202867473098 0.37808090419773493 144 238 144 0.5
0.2830109074116697 0.059338920284490185 0.37798644561600264 144 238 144 0.5
0.2830141554455572 0.059315630639965866 0.3778913390295722 144 238 144 0.5
0.28301749296720347 0.059292162112849475 0.37779559395391804 144 238 144 0.5
0.28302092110550103 0.05926851707483245 0.37769921990451405 144 238 144 0.5
0.28302444098934276 0.05924469789760635 0.37760222639683483 144 238 144 0.5
0.28302805374762097 0.059220706952862565 0.3775046229463543 144 238 144 0.5
0.28303176050922857 0.05919654661229258 0.37740641906854683 144 238 144 0.5
0.28303556240305816 0.05917221924758786 0.3773076242788866 144 238 144 0.5
0.28303946055800233 0.05914772723043989 0.37720824809284786 144 238 144 0.5
0.2830434561029539 0.05912307293254006 0.3771083000259046 144 238 144 0.5
0.28304755016680533 0.059098258725579944 0.37700778959353143 144 238 144 0.5
0.28305174387844934 0.05907328698125095 0.37690672631120226 144 238 144 0.5
0.2830560383667786 0.059048160071244554 0.3768051196943914 144 238 144 0.5
0.28306043476068593 0.05902288036725224 0.37670297925857316 144 238 144 0.5
0.28306493418906375 0.05899745024096541 0.3766003145192215 144 238 144 0.5
0.2830695377808049 0.05897187206407562 0.3764971349918109 144 238 144 0.5
0.2830742466648019 0.058946148208274284 0.37639345019181547 144 238 144 0.5
0.2830790619699475 0.058920281045252876 0.37628926963470943 144 238 144 0.5
0.28308398482513425 0.05889427294670286 0.3761846028359671 144 238 144 0.5
0.283089016359255 0.058868126284315724 0.3760794593110625 144 238 144 0.5
0.2830941577012022 0.058841843429782874 0.3759738485754699 144 238 144 0.5
0.28309940997986854 0.05881542675479584 0.37586778014466354 144 238 144 0.5
0.2831047743241468 0.058788878631046086 0.3757612635341178 144 238 144 0.5
0.2831102518629296 0.05876220143022505 0.3756543082593066 144 238 144 0.5
0.2831158437251096 0.05873539752402422 0.3755469238357045 144 238 144 0.5
0.28312155103957937 0.05870846928413504 0.37543911977878536 144 238 144 0.5
0.28312737493523166 0.05868141908224894 0.3753309056040235 144 238 144 0.5
0.2831333163521951 0.058654249174345585 0.3752222904575255 144 238 144 0.5
0.28313937468511996 0.05862696086902975 0.3751132804612513 144 238 144 0.5
0.2831455485724051 0.05859955501132583 0.3750038802573502 144 238 144 0.5
0.28315183664728705 0.05857203244309376 0.3748940944778706 144 238 144 0.5
0.28315823754300234 0.05854439400619341 0.37478392775486014 144 238 144 0.5
0.28316474989278756 0.058516640542484843 0.3746733847203675 144 238 144 0.5
0.2831713723298792 0.0584887728938279 0.37456247000644033 144 238 144 0.5
0.2831781034875138 0.058460791902082546 0.374451188245127 144 238 144 0.5
0.283184941998928 0.058432698409108724 0.3743395440684755 144 238 144 0.5
0.2831918864973584 0.05840449325676635 0.37422754210853404 144 238 144 0.5
0.28319893561604137 0.058376177286915326 0.3741151869973504 144 238 144 0.5
0.28320608798821356 0.05834775134141568 0.3740024833669732 144 238 144 0.5
0.2832133422471115 0.05831921626212726 0.37388943584945017 144 238 144 0.5
0.28322069702597175 0.05829057289091006 0.37377604907682965 144 238 144 0.5
0.28322815095803083 0.05826182206962398 0.37366232768115953 144 238 144 0.5
0.2832357026765253 0.05823296464012897 0.37354827629448806 144 238 144 0.5
0.2832433508146918 0.0582040014442849 0.3734338995488631 144 238 144 0.5
0.28325109400576676 0.05817493332395181 0.37331920207633307 144 238 144 0.5
0.2832589308829868 0.05814576112098959 0.3732041885089461 144 238 144 0.5
0.28326686007958846 0.05811648567725818 0.37308886347875014 144 238 144 0.5
0.2832748802288082 0.05808710783461749 0.37297323161779317 144 238 144 0.5
0.2832829899638827 0.05805762843492744 0.3728572975581234 144 238 144 0.5
0.28329118791804847 0.05802804832004804 0.37274106593178913 144 238 144 0.5
0.28329947272454203 0.05799836833183918 0.3726245413708383 144 238 144 0.5
0.28330784301659995 0.05796858931216079 0.372507728507319 144 238 144 0.5
0.2833162974274588 0.057938712102872825 0.3723906319732793 144 238 144 0.5
0.283324834590355 0.0579087375458352 0.3722732564007675 144 238 144 0.5
0.2833334531385253 0.057878666482907806 0.3721556064218313 144 238 144 0.5
0.2833421517052061 0.057848499755950675 0.37203768666851933 144 238 144 0.5
0.28335092892363406 0.05781823820682368 0.37191950177287947 144 238 144 0.5
0.2833597834270456 0.05778788267738677 0.37180105636695976 144 238 144 0.5
0.28336871384867746 0.05775743400949991 0.37168235508280834 144 238 144 0.5
0.28337771882176604 0.05772689304502297 0.37156340255247333 144 238 144 0.5
0.28338679697954794 0.0576962606258159 0.3714442034080027 144 238 144 0.5
0.28339594695525966 0.05766553759373868 0.3713247622814449 144 238 144 0.5
0.28340516738213783 0.05763472479065123 0.37120508380484774 144 238 144 0.5
0.28341445689341893 0.057603823058413474 0.3710851726102595 144 238 144 0.5
0.28342381412233947 0.05757283323888534 0.3709650333297281 144 238 144 0.5
0.28343323770213613 0.05754175617392672 0.3708446705953016 144 238 144 0.5
0.28344272626604544 0.05751059270539765 0.3707240890390284 144 238 144 0.5
0.28345227844730386 0.057479343675158015 0.37060329329295655 144 238 144 0.5
0.283461892879148 0.057448009925067746 0.370482287989134 144 238 144 0.5
0.2834715681948144 0.05741659229698677 0.37036107775960897 144 238 144 0.5
0.28348130302753954 0.05738509163277504 0.3702396672364295 144 238 144 0.5
0.2834910960105602 0.05735350877429243 0.3701180610516435 144 238 144 0.5
0.2835009457771126 0.05732184456339897 0.3699962638372995 144 238 144 0.5
0.2835108509604336 0.05729009984195457 0.36987428022544544 144 238 144 0.5
0.2835208101937595 0.05725827545181912 0.3697521148481293 144 238 144 0.5
0.28353082211032704 0.05722637223485261 0.36962977233739935 144 238 144 0.5
0.2835408853433726 0.057194391032914925 0.36950725732530354 144 238 144 0.5
0.2835509985261329 0.05716233268786598 0.36938457444388995 144 238 144 0.5
0.2835611602918443 0.05713019804156578 0.3692617283252068 144 238 144 0.5
0.2835713692737436 0.05709798793587425 0.3691387236013024 144 238 144 0.5
0.2835816241050671 0.0570657032126513 0.3690155649042245 144 238 144 0.5
0.2835919234190515 0.057033344713756866 0.36889225686602145 144 238 144 0.5
0.28360226584893333 0.057000913281050836 0.368768804118741 144 238 144 0.5
0.2836126500279491 0.05696840975639326 0.3686452112944317 144 238 144 0.5
0.28362307458933544 0.05693583498164399 0.3685214830251415 144 238 144 0.5
0.2836335381663287 0.05690318979866299 0.3683976239429185 144 238 144 0.5
0.2836440393921656 0.056870475049310164 0.3682736386798106 144 238 144 0.5
0.2836545769000828 0.05683769157544549 0.3681495318678663 144 238 144 0.5
0.28366514932331655 0.056804840218928815 0.36802530813913314 144 238 144 0.5
0.28367575529510364 0.05677192182162019 0.3679009721256599 144 238 144 0.5
0.2836863934486805 0.056738937225379496 0.36777652845949427 144 238 144 0.5
0.28369706241728376 0.056705887272066685 0.36765198177268454 144 238 144 0.5
0.2837077608341499 0.05667277280354165 0.36752733669727866 144 238 144 0.5
0.2837184873325155 0.05663959466166437 0.36740259786532486 144 238 144 0.5
0.28372924054561716 0.05660635368829472 0.367277769908871 144 238 144 0.5
0.28374001910669133 0.05657305072529271 0.3671528574599655 144 238 144 0.5
0.2837508216489746 0.056539686614518234 0.3670278651506564 144 238 144 0.5
0.2837616468057036 0.05650626219783126 0.36690279761299166 144 238 144 0.5
0.2837724932101147 0.05647277831709167 0.3667776594790195 144 238 144 0.5
0.28378335949544464 0.05643923581415938 0.36665245538078783 144 238 144 0.5
0.2837942442949299 0.056405635530894435 0.3665271899503452 144 238 144 0.5
0.283805146241807 0.0563719783091567 0.3664018678197393 144 238 144 0.5
0.28381606396931247 0.05633826499080611 0.36627649362101844 144 238 144 0.5
0.28382699611068296 0.056304496417702604 0.36615107198623076 144 238 144 0.5
0.28383794129915496 0.05627067343170612 0.3660256075474242 144 238 144 0.5
0.28384889816796494 0.05623679687467654 0.36590010493664665 144 238 144 0.5
0.2838598653503496 0.056202867588473905 0.36577456878594683 144 238 144 0.5
0.28387084147954544 0.05616888641495808 0.3656490037273725 144 238 144 0.5
0.28388182518878896 0.05613485419598903 0.36552341439297176 144 238 144 0.5
0.2838928151113168 0.05610077177342667 0.36539780541479283 144 238 144 0.5
0.2839038098803653 0.05606663998913092 0.36527218142488355 144 238 144 0.5
0.28391480812917136 0.056032459684961705 0.36514654705529215 144 238 144 0.5
0.2839258084909712 0.055998231702779025 0.36502090693806694 144 238 144 0.5
0.28393680959900147 0.055963956884442785 0.3648952657052559 144 238 144 0.5
0.28394781008649883 0.05592963607181291 0.3647696279889071 144 238 144 0.5
0.28395880858669975 0.055895270106749335 0.36464399842106865 144 238 144 0.5
0.28396980373284075 0.05586085983111195 0.3645183816337885 144 238 144 0.5
0.28398079415815847 0.05582640608676079 0.36439278225911514 144 238 144 0.5
0.2839917784958893 0.05579190971555572 0.3642672049290964 144 238 144 0.5
0.28400275537927 0.055757371559356714 0.36414165427578055 144 238 144 0.5
0.2840137234415369 0.055722792460023665 0.36401613493121543 144 238 144 0.5
0.2840246813159268 0.05568817325941653 0.3638906515274494 144 238 144 0.5
0.284035627635676 0.05565351479939519 0.3637652086965304 144 238 144 0.5
0.28404656103402126 0.05561881792181969 0.36363981107050664 144 238 144 0.5
0.2840574801441989 0.05558408346854989 0.3635144632814262 144 238 144 0.5
0.2840683835994457 0.05554931228144576 0.36338916996133724 144 238 144 0.5
0.2840792700329981 0.055514505202367205 0.3632639357422878 144 238 144 0.5
0.28409013808117284 0.05547966309163995 0.36313876530010525 144 238 144 0.5
0.28410098666029115 0.055444788488247555 0.36301366729042184 144 238 144 0.5
0.2841118151866345 0.055409886928487716 0.36288865747498 144 238 144 0.5
0.2841226231282454 0.055374964258972245 0.36276375235122243 144 238 144 0.5
0.2841334099531664 0.05534002632631302 0.3626389684165922 144 238 144 0.5
0.28414417512944035 0.0553050789771219 0.36251432216853235 144 238 144 0.5
0.28415491812510973 0.05527012805801073 0.3623898301044857 144 238 144 0.5
0.284165638408217 0.055235179415591466 0.36226550872189556 144 238 144 0.5
0.28417633544680493 0.055200238896475934 0.36214137451820466 144 238 144 0.5
0.2841870087089161 0.055165312347276 0.36201744399085617 144 238 144 0.5
0.2841976576625931 0.055130405614603556 0.36189373363729294 144 238 144 0.5
0.2842082817758785 0.05509552454507045 0.361770259954958 144 238 144 0.5
0.2842188805168149 0.0550606749852885 0.3616470394412943 144 238 144 0.5
0.28422945335344496 0.05502586278186971 0.361524088593745 144 238 144 0.5
0.2842399997538112 0.05499109378142587 0.361401423909753 144 238 144 0.5
0.2842505191859564 0.05495637383056887 0.3612790618867613 144 238 144 0.5
0.2842610111179229 0.05492170877591058 0.3611570190222129 144 238 144 0.5
0.2842714750177535 0.05488710446406286 0.36103531181355075 144 238 144 0.5
0.2842819103534908 0.05485256674163755 0.3609139567582178 144 238 144 0.5
0.2842923165931774 0.0548181014552466 0.36079297035365715 144 238 144 0.5
0.28430269320485574 0.05478371445150185 0.360672369097312 144 238 144 0.5
0.2843130396565686 0.05474941157701516 0.360552169486625 144 238 144 0.5
0.28432335541635856 0.05471519867839841 0.3604323880190393 144 238 144 0.5
0.2843336399522682 0.054681081602263426 0.3603130411919977 144 238 144 0.5
0.28434389273234 0.05464706619522216 0.36019414550294354 144 238 144 0.5
0.28435411322461684 0.05461315830388646 0.36007571744931965 144 238 144 0.5
0.28436430089714104 0.05457936377486817 0.35995777352856895 144 238 144 0.5
0.28437445521795546 0.05454568845477918 0.3598403302381346 144 238 144 0.5
0.2843845756551025 0.054512138190231374 0.35972340407545955 144 238 144 0.5
0.2843946616766248 0.05447871882783653 0.35960701153798647 144 238 144 0.5
0.28440471275056506 0.05444543621420668 0.35949116912315887 144 238 144 0.5
0.2844147283449659 0.05441229619595359 0.35937589332841946 144 238 144 0.5
0.2844247079278697 0.05437930461968916 0.3592612006512113 144 238 144 0.5
0.28443465096731924 0.05434646733202525 0.3591471075889774 144 238 144 0.5
0.2844445569313571 0.054313790179573745 0.35903363063916066 144 238 144 0.5
0.28445442528802606 0.05428127900894648 0.3589207862992041 144 238 144 0.5
0.28446425550536836 0.05424893966675538 0.35880859106655083 144 238 144 0.5
0.28447404705142676 0.05421677799961231 0.3586970614386438 144 238 144 0.5
0.28448379939424406 0.05418479985412913 0.35858621391292606 144 238 144 0.5
0.28449351200186257 0.05415301107691769 0.3584760649868405 144 238 144 0.5
0.28450318434232513 0.054121417514589855 0.35836663115782996 144 238 144 0.5
0.28451281588367416 0.05409002501375755 0.3582579289233378 144 238 144 0.5
0.28452240609395235 0.05405883942103263 0.3581499747808068 144 238 144 0.5
0.2845319544412023 0.05402786658302694 0.35804278522768007 144 238 144 0.5
0.2845414603934666 0.05399711234635239 0.3579363767614005 144 238 144 0.5
0.28455092341878785 0.05396658255762081 0.3578307658794111 144 238 144 0.5
0.28456034298520877 0.05393628306344405 0.35772596907915477 144 238 144 0.5
0.28456971856077184 0.05390621971043408 0.35762200285807483 144 238 144 0.5
0.2845790496135196 0.0538763983452027 0.35751888371361407 144 238 144 0.5
0.2845883356114948 0.0538468248143618 0.35741662814321545 144 238 144 0.5
0.28459757602274 0.053817504964523255 0.357315252644322 144 238 144 0.5
0.28460677031529774 0.05378844464229892 0.3572147737143766 144 238 144 0.5
0.2846159179572107 0.053759649694300644 0.35711520785082235 144 238 144 0.5
0.2846250184165215 0.05373112596714038 0.35701657155110245 144 238 144 0.5
0.2846340711612726 0.05370287930742994 0.3569188813126597 144 238 144 0.5
0.28464307565950686 0.05367491556178121 0.35682215363293707 144 238 144 0.5
0.2846520313792666 0.053647240576806046 0.3567264050093776 144 238 144 0.5
0.2846609377885946 0.05361986019911631 0.35663165193942414 144 238 144 0.5
0.2846697943555334 0.05359278027532393 0.35653791092051995 144 238 144 0.5
0.28467860054812555 0.05356600665204074 0.3564451984501079 144 238 144 0.5
0.2846873558344139 0.05353954517587863 0.35635353102563105 144 238 144 0.5
0.28469605968244077 0.05351340169344945 0.3562629251445322 144 238 144 0.5
0.28470471156024885 0.05348758205136508 0.3561733973042546 144 238 144 0.5
0.2847133109358808 0.053462092096237354 0.35608496400224093 144 238 144 0.5
0.2847218572773793 0.05343693767467823 0.3559976417359346 144 238 144 0.5
0.28473035005278674 0.053412124633299515 0.3559114470027784 144 238 144 0.5
0.2847387887301458 0.0533876588187131 0.35582639630021523 144 238 144 0.5
0.28474717277749917 0.05336354607753086 0.3557425061256882 144 238 144 0.5
0.2847555016628894 0.05333979225636466 0.3556597929766403 144 238 144 0.5
0.28476377485435905 0.053316403201826346 0.3555782733505144 144 238 144 0.5
0.2847719918199509 0.05329338476052784 0.35549796374475373 144 238 144 0.5
0.2847801520277073 0.053270742779081004 0.35541888065680116 144 238 144 0.5
0.284788254945671 0.05324848310409768 0.35534104058409965 144 238 144 0.5
0.2847963000418846 0.05322661158218977 0.3552644600240923 144 238 144 0.5
0.2848042867843907 0.053205134059969086 0.35518915547422186 144 238 144 0.5
0.28481221464123185 0.05318405638404759 0.3551151434319316 144 238 144 0.5
0.28482008308045065 0.05316338440103711 0.3550424403946645 144 238 144 0.5
0.28482789157008986 0.05314312395754952 0.3549710628598634 144 238 144 0.5
0.28483563957819186 0.05312328090019666 0.3549010273249715 144 238 144 0.5
0.2848433265727994 0.05310386107559046 0.35483235028743154 144 238 144 0.5
0.28485095202195515 0.05308487033034273 0.3547650482446866 144 238 144 0.5
0.28485851539370144 0.0530663145110654 0.3546991376941798 144 238 144 0.5
0.2848660161560812 0.053048199464370324 0.35463463513335414 144 238 144 0.5
0.2848734537771368 0.053030531036869354 0.3545715570596525 144 238 144 0.5
0.28488082772491097 0.05301331507517438 0.3545099199705179 144 238 144 0.5
0.2848881374674463 0.05299655742589727 0.35444974036339333 144 238 144 0.5
0.28489538247278523 0.05298026393564987 0.35439103473572175 144 238 144 0.5
0.2849025622089706 0.0529644404510441 0.35433381958494625 144 238 144 0.5
0.28490967614404494 0.05294909281869182 0.3542781114085099 144 238 144 0.5
0.2849167237460507 0.05293422688520487 0.3542239267038555 144 238 144 0.5
0.2849237044830307 0.05291984849719514 0.3541712819684262 144 238 144 0.5
0.28493061782302753 0.052905963501274494 0.35412019369966474 144 238 144 0.5
0.28493746323408364 0.05289257774405483 0.3540706783950145 144 238 144 0.5
0.2849442401842417 0.052879697072148006 0.3540227525519183 144 238 144 0.5
0.2849509481415443 0.05286732733216588 0.353976432667819 144 238 144 0.5
0.28495758657403414 0.05285547437072034 0.35393173524015975 144 238 144 0.5
0.28496415494975375 0.05284414403442326 0.3538886767663836 144 238 144 0.5
0.2849706527367457 0.05283334216988647 0.3538472737439333 144 238 144 0.5
0.28497707940305267 0.05282307462372191 0.35380754267025216 144 238 144 0.5
0.2849834344167172 0.052813347242541414 0.3537695000427829 144 238 144 0.5
0.2849897172457819 0.05280416587295686 0.35373316235896873 144 238 144 0.5
0.2849959274788484 0.05279553521832031 0.3536985428495752 144 238 144 0.5
0.28500206561552227 0.05278745134293502 0.3536656300607029 144 238 144 0.5
0.2850081325716828 0.05277990636358329 0.3536344012590589 144 238 144 0.5
0.2850141292653495 0.05277289237675123 0.3536048336533571 144 238 144 0.5
0.2850200566145421 0.05276640147892486 0.3535769044523113 144 238 144 0.5
0.2850259155372801 0.05276042576659029 0.35355059086463564 144 238 144 0.5
0.2850317069515829 0.052754957336233574 0.35352587009904357 144 238 144 0.5
0.2850374317754703 0.05274998828434077 0.3535027193642492 144 238 144 0.5
0.2850430909269617 0.05274551070739797 0.3534811158689664 144 238 144 0.5
0.2850486853240767 0.05274151670189124 0.353461036821909 144 238 144 0.5
0.28505421588483476 0.05273799836430664 0.35344245943179087 144 238 144 0.5
0.2850596835272556 0.05273494779113026 0.3534253609073258 144 238 144 0.5
0.2850650891693587 0.05273235707884817 0.35340971845722785 144 238 144 0.5
0.2850704337291636 0.052730218323946414 0.35339550929021063 144 238 144 0.5
0.28507571812468996 0.0527285236229111 0.3533827106149882 144 238 144 0.5
0.2850809432739573 0.052727265072228274 0.3533712996402745 144 238 144 0.5
0.285086110094985 0.05272643476838403 0.35336125357478315 144 238 144 0.5
0.28509121950579286 0.052726024807864424 0.35335254962722823 144 238 144 0.5
0.28509627242440033 0.052726027287155516 0.3533451650063235 144 238 144 0.5
0.28510126976882705 0.0527264343027434 0.35333907692078276 144 238 144 0.5
0.2851062124570925 0.05272723795111415 0.35333426257932016 144 238 144 0.5
0.28511110140721624 0.05272843032875381 0.35333069919064924 144 238 144 0.5
0.2851159375372178 0.052730003532148476 0.35332836396348416 144 238 144 0.5
0.2851207217651168 0.05273194965778419 0.3533272341065385 144 238 144 0.5
0.2851254550089329 0.05273426080214708 0.3533272868285264 144 238 144 0.5
0.2851301381866854 0.05273692906172316 0.3533284993381615 144 238 144 0.5
0.28513477221639405 0.05273994653299854 0.35333084884415794 144 238 144 0.5
0.28513935801607837 0.05274330531245926 0.3533343125552293 144 238 144 0.5
0.2851438965037579 0.0527469974965914 0.35333886768008954 144 238 144 0.5
0.2851483885974522 0.05275101518188105 0.35334449142745267 144 238 144 0.5
0.28515283521518076 0.05275535046481427 0.35335116100603237 144 238 144 0.5
0.28515723727496334 0.05275999544187713 0.3533588536245426 144 238 144 0.5
0.28516159569481936 0.0527649422095557 0.35336754649169727 144 238 144 0.5
0.2851659113927683 0.052770182864336046 0.35337721681621015 144 238 144 0.5
0.28517018528682986 0.05277570950270426 0.3533878418067951 144 238 144 0.5
0.2851744182950236 0.052781514221146394 0.35339939867216624 144 238 144 0.5
0.28517861133536904 0.05278758911614853 0.35341186462103713 144 238 144 0.5
0.28518276532588566 0.05279392628419674 0.3534252168621218 144 238 144 0.5
0.2851868811845932 0.05280051782177708 0.35343943260413413 144 238 144 0.5
0.2851909598295109 0.05280735582537563 0.35345448905578775 144 238 144 0.5
0.2851950021786587 0.052814432391478476 0.35347036342579685 144 238 144 0.5
0.28519900915005597 0.052821739616571696 0.3534870329228752 144 238 144 0.5
0.2852029816617223 0.05282926959714131 0.3535044747557366 144 238 144 0.5
0.2852069206316771 0.05283701442967343 0.35352266613309485 144 238 144 0.5
0.2852108269779402 0.05284496621065412 0.353541584263664 144 238 144 0.5
0.28521470161853096 0.052853117036569454 0.3535612063561579 144 238 144 0.5
0.2852185454714691 0.052861459003905494 0.3535815096192903 144 238 144 0.5
0.285222359454774 0.052869984209148346 0.35360247126177513 144 238 144 0.5
0.28522614448646527 0.05287868474878403 0.35362406849232636 144 238 144 0.5
0.2852299014845625 0.052887552719298646 0.3536462785196577 144 238 144 0.5
0.2852336313670853 0.05289658021717825 0.353669078552483 144 238 144 0.5
0.2852373350520532 0.05290575933890894 0.35369244579951625 144 238 144 0.5
0.28524101345748565 0.05291508218097676 0.3537163574694712 144 238 144 0.5
0.2852446675014023 0.05292454083986779 0.3537407907710619 144 238 144 0.5
0.28524829810182284 0.05293412741206814 0.35376572291300223 144 238 144 0.5
0.28525190617676655 0.052943833994063806 0.3537911311040058 144 238 144 0.5
0.28525549264425326 0.05295365268234092 0.35381699255278665 144 238 144 0.5
0.2852590584223022 0.05296357557338552 0.35384328446805857 144 238 144 0.5
0.2852626044289333 0.052973594763683705 0.3538699840585356 144 238 144 0.5
0.285266131582166 0.05298370234972152 0.35389706853293146 144 238 144 0.5
0.28526964080001965 0.05299389042798506 0.3539245150999601 144 238 144 0.5
0.2852731330005141 0.053004151094960365 0.35395230096833513 144 238 144 0.5
0.28527660910166863 0.05301447644713353 0.3539804033467708 144 238 144 0.5
0.285280070021503 0.05302485858099064 0.3540087994439808 144 238 144 0.5
0.28528351667803686 0.053035289593017745 0.35403746646867895 144 238 144 0.5
0.28528694998928944 0.05304576157970092 0.3540663816295793 144 238 144 0.5
0.2852903708732806 0.05305626663752623 0.3540955221353955 144 238 144 0.5
0.2852937802480297 0.05306679686297974 0.3541248651948415 144 238 144 0.5
0.28529717903155644 0.053077344352547566 0.3541543880166313 144 238 144 0.5
0.2853005681418803 0.05308790120271573 0.3541840678094786 144 238 144 0.5
0.2853039484970208 0.05309845950997033 0.35421388178209723 144 238 144 0.5
0.2853073210149977 0.053109011370797425 0.35424380714320125 144 238 144 0.5
0.2853106866138303 0.0531195488816831 0.3542738211015044 144 238 144 0.5
0.2853140462115384 0.053130064139113406 0.35430390086572067 144 238 144 0.5
0.2853174007261413 0.053140549239574425 0.35433402364456373 144 238 144 0.5
0.2853207510756588 0.05315099627955225 0.35436416664674764 144 238 144 0.5
0.2853240981781103 0.05316139735553291 0.3543943070809861 144 238 144 0.5
0.28532744295151535 0.0531717445640025 0.3544244221559932 144 238 144 0.5
0.28533078631389375 0.0531820300014471 0.35445448908048266 144 238 144 0.5
0.28533412918326473 0.05319224576435276 0.3544844850631683 144 238 144 0.5
0.285337472477648 0.05320238394920557 0.3545143873127641 144 238 144 0.5
0.28534081711506315 0.053212436652491604 0.35454417303798386 144 238 144 0.5
0.28534416401352974 0.05322239597069691 0.3545738194475415 144 238 144 0.5
0.2853475140910673 0.05323225400030758 0.3546033037501509 144 238 144 0.5
0.2853508682656954 0.053242002837809665 0.3546326031545258 144 238 144 0.5
0.28535422745543354 0.053251634579689254 0.35466169486938026 144 238 144 0.5
0.2853575925783013 0.053261141322432426 0.35469055610342803 144 238 144 0.5
0.2853609645523183 0.053270515162525234 0.354719164065383 144 238 144 0.5
0.2853643442955041 0.053279748196453765 0.35474749596395905 144 238 144 0.5
0.2853677327258782 0.053288832520704064 0.35477552900787 144 238 144 0.5
0.2853711307614602 0.05329776023176224 0.35480324040582983 144 238 144 0.5
0.28537453932026957 0.05330652342611433 0.3548306073665523 144 238 144 0.5
0.28537795932032606 0.05331511420024644 0.35485760709875136 144 238 144 0.5
0.28538139167964904 0.05332352465064461 0.3548842168111408 144 238 144 0.5
0.2853848373162581 0.05333174687379491 0.3549104137124346 144 238 144 0.5
0.28538829714817293 0.053339772966183446 0.3549361750113465 144 238 144 0.5
0.2853917720934128 0.05334759502429624 0.35496147791659033 144 238 144 0.5
0.28539526306999774 0.05335520514461942 0.3549862996368803 144 238 144 0.5
0.28539877099594685 0.053362595423639025 0.35501061738092987 144 238 144 0.5
0.28540229678927986 0.05336975795784112 0.3550344083574531 144 238 144 0.5
0.2854058413544762 0.05337668489445427 0.35505764990763655 144 238 144 0.5
0.2854094045928945 0.05338337213991645 0.35508032918678845 144 238 144 0.5
0.28541298473019117 0.053389821880388745 0.3551024497446121 144 238 144 0.5
0.2854165798327607 0.05339603689886659 0.35512401668895893 144 238 144 0.5
0.28542018796699814 0.05340201997834543 0.3551450351276805 144 238 144 0.5
0.2854238071992981 0.05340777390182074 0.35516551016862824 144 238 144 0.5
0.28542743559605543 0.05341330145228795 0.3551854469196536 144 238 144 0.5
0.28543107122366496 0.05341860541274253 0.3552048504886082 144 238 144 0.5
0.28543471214852145 0.05342368856617991 0.3552237259833434 144 238 144 0.5
0.2854383564370196 0.05342855369559555 0.35524207851171075 144 238 144 0.5
0.2854420021555542 0.0534332035839849 0.3552599131815617 144 238 144 0.5
0.2854456473705202 0.05343764101434342 0.35527723510074777 144 238 144 0.5
0.28544929014831216 0.05344186876966656 0.3552940493771202 144 238 144 0.5
0.2854529285553251 0.053445889632949765 0.3553103611185309 144 238 144 0.5
0.28545656065795366 0.053449706387188475 0.3553261754328311 144 238 144 0.5
0.2854601845225926 0.05345332181537817 0.3553414974278724 144 238 144 0.5
0.2854637982156368 0.05345673870051427 0.3553563322115061 144 238 144 0.5
0.28546739980348096 0.053459959825592256 0.3553706848915838 144 238 144 0.5
0.28547098735251986 0.053462987973607566 0.35538456057595696 144 238 144 0.5
0.28547455892914836 0.05346582592755564 0.35539796437247717 144 238 144 0.5
0.28547811259976125 0.053468476470431944 0.3554109013889957 144 238 144 0.5
0.28548164643075324 0.05347094238523192 0.3554233767333643 144 238 144 0.5
0.28548515848851913 0.05347322645495103 0.35543539551343417 144 238 144 0.5
0.28548864683945374 0.053475331462584715 0.355446962837057 144 238 144 0.5
0.28549210954995186 0.05347726019112843 0.3554580838120842 144 238 144 0.5
0.28549554468640814 0.05347901542357763 0.3554687635463673 144 238 144 0.5
0.2854989503152176 0.05348059994292776 0.35547900714775776 144 238 144 0.5
0.2855023245027749 0.05348201653217428 0.355488819724107 144 238 144 0.5
0.2855056653154747 0.05348326797431262 0.3554982063832665 144 238 144 0.5
0.28550897081971205 0.053484357052338255 0.35550717223308786 144 238 144 0.5
0.28551223908188156 0.05348528654924664 0.35551572238142254 144 238 144 0.5
0.285515468168378 0.0534860592480332 0.35552386193612184 144 238 144 0.5
0.2855186561455962 0.053486677931693406 0.3555315960050375 144 238 144 0.5
0.28552180107993097 0.05348714538322271 0.35553892969602086 144 238 144 0.5
0.28552490103777706 0.05348746438561655 0.35554586811692346 144 238 144 0.5
0.2855279540855292 0.05348763772187039 0.3555524163755967 144 238 144 0.5
0.2855309582895824 0.053487668174979665 0.35555857957989223 144 238 144 0.5
0.2855339117163312 0.05348755852793985 0.3555643628376613 144 238 144 0.5
0.2855368124321704 0.053487311563746365 0.3555697712567556 144 238 144 0.5
0.285539658503495 0.05348693006539469 0.35557480994502655 144 238 144 0.5
0.2855424479966995 0.053486416815880275 0.3555794840103256 144 238 144 0.5
0.2855451789781788 0.05348577459819855 0.35558379856050415 144 238 144 0.5
0.2855478495143278 0.053485006195344985 0.3555877587034139 144 238 144 0.5
0.2855504576715412 0.053484114390315016 0.3555913695469062 144 238 144 0.5
0.2855530015162137 0.05348310196610412 0.3555946361988326 144 238 144 0.5
0.28555547911474016 0.053481971705707704 0.35559756376704427 144 238 144 0.5
0.2855578885335155 0.05348072639212127 0.3556001573593933 144 238 144 0.5
0.2855602278389342 0.053479368808340234 0.35560242208373066 144 238 144 0.5
0.2855624950973913 0.05347790173736007 0.35560436304790805 144 238 144 0.5
0.28556468837528143 0.053476327962176204 0.35560598535977683 144 238 144 0.5
0.2855668057389995 0.053474650265784116 0.3556072941271886 144 238 144 0.5
0.2855688452549402 0.053472871431179236 0.35560829445799486 144 238 144 0.5
0.2855708049894984 0.05347099424135702 0.355608991460047 144 238 144 0.5
0.28557268300906874 0.053469021479312914 0.3556093902411966 144 238 144 0.5
0.2855744773800462 0.0534669559280424 0.3556094959092951 144 238 144 0.5
0.2855761861688254 0.053464800370540876 0.35560931357219383 144 238 144 0.5
0.2855778074418011 0.05346255758980384 0.3556088483377445 144 238 144 0.5
0.28557933926536827 0.05346023036882673 0.35560810531379855 144 238 144 0.5
0.28558077970592166 0.053457821490605 0.3556070896082074 144 238 144 0.5
0.2855821268298559 0.05345533373813407 0.3556058063288225 144 238 144 0.5
0.28558337870356587 0.05345276989440943 0.3556042605834954 144 238 144 0.5
0.2855845333934464 0.05345013274242653 0.3556024574800776 144 238 144 0.5
0.2855855889658922 0.053447425065180784 0.3556004021264205 144 238 144 0.5
0.28558654348729806 0.05344464964566769 0.3555980996303758 144 238 144 0.5
0.2855873950240588 0.05344180926688267 0.3555955550997948 144 238 144 0.5
0.2855881416425691 0.05343890671182117 0.35559277364252884 144 238 144 0.5
0.28558878140922395 0.05343594476347866 0.3555897603664297 144 238 144 0.5
0.28558931239041796 0.05343292620485059 0.3555865203793487 144 238 144 0.5
0.28558973265254595 0.053429853818932414 0.3555830587891373 144 238 144 0.5
0.28559004026200274 0.05342673038871956 0.3555793807036472 144 238 144 0.5
0.2855902332851831 0.05342355869720751 0.3555754912307296 144 238 144 0.5
0.2855903097884818 0.053420341527391696 0.3555713954782362 144 238 144 0.5
0.2855902678382937 0.053417081662267565 0.3555670985540183 144 238 144 0.5
0.28559010550101344 0.053413781884830584 0.3555626055659275 144 238 144 0.5
0.2855898208430359 0.05341044497807619 0.35555792162181526 144 238 144 0.5
0.2855894119307559 0.05340707372499985 0.3555530518295331 144 238 144 0.5
0.28558887683056816 0.053403670908597003 0.3555480012969324 144 238 144 0.5
0.28558821360886744 0.0534002393118631 0.35554277513186483 144 238 144 0.5
0.28558742033204865 0.05339678171779359 0.3555373784421817 144 238 144 0.5
0.2855864950665063 0.05339330090938396 0.35553181633573455 144 238 144 0.5
0.2855854358786355 0.05338979966962961 0.3555260939203748 144 238 144 0.5
0.28558424083483086 0.053386280781526005 0.35552021630395403 144 238 144 0.5
0.28558290800148717 0.05338274702806861 0.35551418859432377 144 238 144 0.5
0.28558143544499937 0.05337920119225289 0.3555080158993354 144 238 144 0.5
0.285579821231762 0.05337564605707425 0.3555017033268404 144 238 144 0.5
0.28557806342817 0.05337208440552818 0.35549525598469023 144 238 144 0.5
0.28557616010061815 0.05336851902061013 0.35548867898073655 144 238 144 0.5
0.28557410931550115 0.05336495268531552 0.3554819774228306 144 238 144 0.5
0.2855719091392138 0.05336138818263983 0.355475156418824 144 238 144 0.5
0.285569557638151 0.0533578282955785 0.3554682210765683 144 238 144 0.5
0.28556705287870743 0.053354275807127 0.35546117650391484 144 238 144 0.5
0.28556439292727787 0.053350733500280745 0.35545402780871516 144 238 144 0.5
0.28556157585025715 0.05334720415803522 0.35544678009882075 144 238 144 0.5
0.28555859971404013 0.053343690563385865 0.35543943848208315 144 238 144 0.5
0.2855554625850214 0.05334019549932812 0.3554320080663538 144 238 144 0.5
0.2855521625295958 0.053336721748857445 0.35542449395948406 144 238 144 0.5
0.2855486976141583 0.053333272094969304 0.3554169012693255 144 238 144 0.5
0.2855450659051034 0.05332984932065912 0.35540923510372974 144 238 144 0.5
0.28554126546882613 0.05332645620892237 0.35540150057054803 144 238 144 0.5
0.2855372943717212 0.05332309554275451 0.35539370277763216 144 238 144 0.5
0.2855331506801833 0.05331977010515096 0.3553858468328333 144 238 144 0.5
0.28552883302144155 0.05331648242944495 0.3553779376227356 144 238 144 0.5
0.28552434393951076 0.0533132333053645 0.3553699784886235 144 238 144 0.5
0.285519687648464 0.053310022779190724 0.3553619721128886 144 238 144 0.5
0.2855148683685848 0.053306850894440136 0.3553539211754726 144 238 144 0.5
0.28550989032015667 0.05330371769462922 0.35534582835631734 144 238 144 0.5
0.2855047577234629 0.05330062322327448 0.355337696335364 144 238 144 0.5
0.28549947479878707 0.0532975675238924 0.35532952779255433 144 238 144 0.5
0.28549404576641263 0.053294550639999515 0.3553213254078302 144 238 144 0.5
0.2854884748466231 0.0532915726151123 0.35531309186113297 144 238 144 0.5
0.28548276625970176 0.05328863349274725 0.3553048298324043 144 238 144 0.5
0.2854769242259323 0.053285733316420884 0.3552965420015859 144 238 144 0.5
0.28547095296559793 0.05328287212964969 0.3552882310486192 144 238 144 0.5
0.2854648566989823 0.05328004997595017 0.355279899653446 144 238 144 0.5
0.28545863964636886 0.05327726689883882 0.3552715504960077 144 238 144 0.5
0.285452306028041 0.05327452294183216 0.35526318625624614 144 238 144 0.5
0.28544586006428224 0.053271818148446656 0.35525480961410283 144 238 144 0.5
0.285439305975376 0.05326915256219884 0.35524642324951944 144 238 144 0.5
0.28543264798160567 0.05326652622660519 0.3552380298424374 144 238 144 0.5
0.28542589030325494 0.05326393918518222 0.35522963207279856 144 238 144 0.5
0.28541903716060707 0.05326139148144642 0.35522123262054445 144 238 144 0.5
0.2854120927739455 0.0532588831589143 0.35521283416561655 144 238 144 0.5
0.2854050613635539 0.053256414261102336 0.35520443938795665 144 238 144 0.5
0.28539794714971556 0.05325398483152707 0.3551960509675062 144 238 144 0.5
0.28539075435271394 0.05325159491370495 0.35518767158420705 144 238 144 0.5
0.2853834871928326 0.05324924455115252 0.35517930391800057 144 238 144 0.5
0.2853761498903549 0.053246933787386264 0.3551709506488286 144 238 144 0.5
0.2853687466655644 0.05324466266592267 0.35516261445663244 144 238 144 0.5
0.2853612817387445 0.05324243123027825 0.35515429802135395 144 238 144 0.5
0.2853537593301787 0.05324023952396953 0.35514600402293484 144 238 144 0.5
0.28534618366015035 0.053238087590512954 0.3551377351413163 144 238 144 0.5
0.28533855894894306 0.05323597547342506 0.3551294940564404 144 238 144 0.5
0.28533088941684026 0.05323390321622234 0.3551212834482485 144 238 144 0.5
0.28532317928412526 0.053231870862421295 0.3551131059966822 144 238 144 0.5
0.28531543277108173 0.05322987845553841 0.3551049643816834 144 238 144 0.5
0.28530765409799297 0.053227926039090205 0.35509686128319323 144 238 144 0.5
0.2852998474851426 0.053226013656593164 0.35508879938115373 144 238 144 0.5
0.28529201715281394 0.053224141351563795 0.35508078135550625 144 238 144 0.5
0.2852841673212905 0.0532223091675186 0.35507280988619255 144 238 144 0.5
0.2852763022108558 0.053220517147974086 0.35506488765315425 144 238 144 0.5
0.28526842604179325 0.05321876533644674 0.3550570173363329 144 238 144 0.5
0.28526054303438625 0.05321705377645307 0.3550492016156701 144 238 144 0.5
0.2852526574089184 0.053215382511509556 0.3550414431711074 144 238 144 0.5
0.28524477338567306 0.05321375158513273 0.35503374468258664 144 238 144 0.5
0.2852368951849337 0.05321216104083906 0.35502610883004926 144 238 144 0.5
0.2852290270269837 0.05321061092214507 0.3550185382934368 144 238 144 0.5
0.28522117313210676 0.05320910127256724 0.35501103575269105 144 238 144 0.5
0.2852133377205862 0.053207632135622095 0.35500360388775354 144 238 144 0.5
0.2852055250127054 0.05320620355482611 0.3549962453785659 144 238 144 0.5
0.2851977392287479 0.0532048155736958 0.35498896290506965 144 238 144 0.5
0.2851899845889973 0.05320346823574766 0.35498175914720664 144 238 144 0.5
0.28518226531373686 0.0532021615844982 0.35497463678491825 144 238 144 0.5
0.28517458562325 0.053200895663463886 0.35496759849814613 144 238 144 0.5
0.2851669497378205 0.053199670516161264 0.3549606469668319 144 238 144 0.5
0.2851593618777314 0.0531984861861068 0.35495378487091733 144 238 144 0.5
0.28515182626326646 0.05319734271681701 0.3549470148903438 144 238 144 0.5
0.2851443471147091 0.0531962401518084 0.3549403397050532 144 238 144 0.5
0.28513692865234275 0.05319517853459744 0.3549337619949869 144 238 144 0.5
0.28512957509645076 0.05319415790870067 0.35492728444008653 144 238 144 0.5
0.2851222906673167 0.05319317831763455 0.3549209097202938 144 238 144 0.5
0.28511507958522403 0.05319223980491561 0.3549146405155502 144 238 144 0.5
0.2851079460704562 0.05319134241406033 0.35490847950579746 144 238 144 0.5
0.28510089434329683 0.05319048618858524 0.3549024293709773 144 238 144 0.5
0.285093928624029 0.05318967117200679 0.35489649279103097 144 238 144 0.5
0.2850870531329365 0.05318889740784152 0.35489067244590045 144 238 144 0.5
0.2850802720903028 0.05318816493960593 0.3548849710155272 144 238 144 0.5
0.2850735897164111 0.0531874738108165 0.3548793911798528 144 238 144 0.5
0.285067010231545 0.05318682406498973 0.35487393561881886 144 238 144 0.5
0.285060537855988 0.05318621574564214 0.35486860701236705 144 238 144 0.5
0.2850541768100236 0.05318564889629022 0.3548634080404391 144 238 144 0.5
0.28504793131393513 0.05318512356045045 0.3548583413829764 144 238 144 0.5
0.2850418055880062 0.05318463978163937 0.3548534097199206 144 238 144 0.5
0.2850358038525201 0.05318419760337346 0.35484861573121346 144 238 144 0.5
0.2850299303277604 0.05318379706916919 0.35484396209679636 144 238 144 0.5
0.28502418923401057 0.05318343822254311 0.35483945149661117 144 238 144 0.5
0.28501858479155406 0.05318312110701169 0.35483508661059937 144 238 144 0.5
0.2850131212206743 0.05318284576609144 0.3548308701187025 144 238 144 0.5
0.28500780274165477 0.05318261224329885 0.3548268047008623 144 238 144 0.5
0.28500263357477895 0.05318242058215044 0.3548228930370204 144 238 144 0.5
0.2849976179403302 0.053182270826162684 0.35481913780711827 144 238 144 0.5
0.28499276005859214 0.053182163018852105 0.3548155416910977 144 238 144 0.5
0.2849880641498481 0.05318209720373519 0.3548121073689002 144 238 144 0.5
0.2849835344343817 0.053182073424328444 0.35480883752046727 144 238 144 0.5
0.28497917513247617 0.05318209172414836 0.35480573482574074 144 238 144 0.5
0.2849749904644152 0.053182152146711445 0.35480280196466213 144 238 144 0.5
0.2849709846504821 0.053182254735534194 0.354800041617173 144 238 144 0.5
0.28496716191096033 0.05318239953413311 0.3547974564632151 144 238 144 0.5
0.28496352646613354 0.05318258658602469 0.35479504918272986 144 238 144 0.5
0.2849600825362849 0.053182815934725444 0.354792822455659 144 238 144 0.5
0.28495683434169816 0.05318308762375185 0.35479077896194416 144 238 144 0.5
0.2849537861026566 0.05318340169662044 0.3547889213815269 144 238 144 0.5
0.2849509420394437 0.053183758196847675 0.3547872523943488 144 238 144 0.5
0.284948306372343 0.053184157167950094 0.3547857746803516 144 238 144 0.5
0.28494588332163784 0.053184598653444166 0.3547844909194768 144 238 144 0.5
0.28494367710761187 0.05318508269684641 0.354783403791666 144 238 144 0.5
0.2849416919505483 0.053185609341673316 0.3547825159768609 144 238 144 0.5
0.2849399320707309 0.053186178631441386 0.35478183015500303 144 238 144 0.5
0.2849384016884428 0.05318679060966713 0.35478134900603414 144 238 144 0.5
0.2849371050239677 0.05318744531986703 0.3547810752098956 144 238 144 0.5
0.28493604629758895 0.05318814280555759 0.35478101144652924 144 238 144 0.5
0.28493522972959007 0.053188883110255325 0.3547811603958766 144 238 144 0.5
0.2849346594933457 0.053189666270368315 0.3547815246922855 144 238 144 0.5
