ply
format ascii 1.0
element vertex 623
property float x
property float y
property float z
property uchar red
property uchar green
property uchar blue
property float size
end_header
0.6715946357385947 -0.08533736454324573 0.09461352113438742 144 238 144 0.5
0.6713681917415899 -0.08534269992126162 0.09456411074261313 144 238 144 0.5
0.67114092719624 -0.08534801294053855 0.09451497320152327 144 238 144 0.5
0.6709128156428441 -0.08535330366354046 0.09446611196623642 144 238 144 0.5
0.6706838306217013 -0.08535857215273135 0.09441753049187111 144 238 144 0.5
0.6704539456731115 -0.08536381847057513 0.09436923223354599 144 238 144 0.5
0.6702231343373728 -0.08536904267953575 0.09432122064637952 144 238 144 0.5
0.6699913701547849 -0.08537424484207719 0.09427349918549037 144 238 144 0.5
0.6697586266656477 -0.08537942502066342 0.0942260713059971 144 238 144 0.5
0.6695248774102586 -0.08538458327775837 0.09417894046301813 144 238 144 0.5
0.6692900959289186 -0.085389719675826 0.09413211011167227 144 238 144 0.5
0.6690542557619266 -0.08539483427733027 0.09408558370707802 144 238 144 0.5
0.6688173304495814 -0.08539992714473515 0.09403936470435391 144 238 144 0.5
0.6685792935321822 -0.08540499834050456 0.09399345655861853 144 238 144 0.5
0.6683401185500283 -0.0854100479271025 0.09394786272499044 144 238 144 0.5
0.668099779043419 -0.08541507596699291 0.09390258665858824 144 238 144 0.5
0.6678582485526533 -0.08542008252263972 0.09385763181453045 144 238 144 0.5
0.6676155006180305 -0.08542506765650693 0.09381300164793573 144 238 144 0.5
0.6673715087798497 -0.08543003143105846 0.09376869961392255 144 238 144 0.5
0.6671262465784106 -0.0854349739087583 0.09372472916760956 144 238 144 0.5
0.6668796875540116 -0.08543989515207037 0.09368109376411529 144 238 144 0.5
0.6666318052469526 -0.08544479522345864 0.09363779685855834 144 238 144 0.5
0.6663825731975317 -0.0854496741853871 0.09359484190605714 144 238 144 0.5
0.6661319649460495 -0.08545453210031966 0.09355223236173052 144 238 144 0.5
0.6658799540328048 -0.0854593690307203 0.09350997168069693 144 238 144 0.5
0.6656265139980967 -0.08546418503905295 0.09346806331807495 144 238 144 0.5
0.6653716183822241 -0.08546898018778158 0.09342651072898311 144 238 144 0.5
0.6651152407254867 -0.08547375453937019 0.09338531736854004 144 238 144 0.5
0.6648573545681833 -0.08547850815628268 0.09334448669186426 144 238 144 0.5
0.6645979334506132 -0.08548324110098302 0.0933040221540744 144 238 144 0.5
0.6643369509130758 -0.08548795343593517 0.093263927210289 144 238 144 0.5
0.6640743804958701 -0.08549264522360309 0.09322420531562664 144 238 144 0.5
0.6638101970253673 -0.08549731659661261 0.0931848595262123 144 238 144 0.5
0.6635443954974041 -0.08550196878793775 0.0931458866407547 144 238 144 0.5
0.6632769869219843 -0.08550660390420801 0.09310727848969441 144 238 144 0.5
0.6630079827502341 -0.08551122407611829 0.09306902676661721 144 238 144 0.5
0.662737394433282 -0.08551583143436357 0.09303112316510917 144 238 144 0.5
0.662465233422253 -0.08552042810963877 0.09299355937875596 144 238 144 0.5
0.6621915111682749 -0.08552501623263886 0.09295632710114347 144 238 144 0.5
0.6619162391224738 -0.08552959793405877 0.09291941802585751 144 238 144 0.5
0.6616394287359765 -0.08553417534459347 0.09288282384648394 144 238 144 0.5
0.6613610914599092 -0.08553875059493785 0.09284653625660853 144 238 144 0.5
0.6610812387453997 -0.08554332581578691 0.09281054694981723 144 238 144 0.5
0.6607998820435735 -0.08554790313783556 0.09277484761969577 144 238 144 0.5
0.6605170328055582 -0.08555248469177881 0.09273942995983003 144 238 144 0.5
0.6602327024824799 -0.08555707260831154 0.09270428566380587 144 238 144 0.5
0.6599469025254656 -0.08556166901812871 0.09266940642520909 144 238 144 0.5
0.659659644385642 -0.0855662760519253 0.09263478393762554 144 238 144 0.5
0.6593709395141346 -0.08557089584039623 0.09260040989464098 144 238 144 0.5
0.6590807993620723 -0.08557553051423644 0.0925662759898414 144 238 144 0.5
0.6587892353805805 -0.0855801822041409 0.0925323739168126 144 238 144 0.5
0.6584962590207862 -0.08558485304080453 0.09249869536914035 144 238 144 0.5
0.6582018817338159 -0.0855895451549223 0.09246523204041052 144 238 144 0.5
0.6579061149707964 -0.08559426067718914 0.09243197562420895 144 238 144 0.5
0.6576089701828545 -0.08559900173830001 0.09239891781412148 144 238 144 0.5
0.6573104588211165 -0.08560377046894986 0.09236605030373392 144 238 144 0.5
0.6570105923367093 -0.08560856899983359 0.09233336478663214 144 238 144 0.5
0.6567093821807598 -0.0856133994616462 0.09230085295640193 144 238 144 0.5
0.6564068398043945 -0.08561826398508263 0.0922685065066292 144 238 144 0.5
0.6561029766587401 -0.0856231647008378 0.09223631713089972 144 238 144 0.5
0.6557978041949234 -0.08562810373960669 0.09220427652279936 144 238 144 0.5
0.65549133386407 -0.08563308323208423 0.09217237637591387 144 238 144 0.5
0.6551835771173085 -0.08563810530896537 0.09214060838382925 144 238 144 0.5
0.6548745454057646 -0.08564317210094503 0.09210896424013125 144 238 144 0.5
0.6545642501805652 -0.08564828573871819 0.09207743563840572 144 238 144 0.5
0.6542527028928367 -0.08565344835297979 0.09204601427223848 144 238 144 0.5
0.6539399149937061 -0.08565866207442474 0.09201469183521536 144 238 144 0.5
0.6536258979342999 -0.08566392903374805 0.09198346002092224 144 238 144 0.5
0.6533106631657448 -0.08566925136164463 0.0919523105229449 144 238 144 0.5
0.6529942221391675 -0.08567463118880941 0.09192123503486922 144 238 144 0.5
0.6526765863056948 -0.0856800706459374 0.09189022525028104 144 238 144 0.5
0.6523577671164534 -0.08568557186372347 0.09185927286276617 144 238 144 0.5
0.6520377760225697 -0.08569113697286262 0.09182836956591045 144 238 144 0.5
0.6517166244751709 -0.08569676810404978 0.09179750705329973 144 238 144 0.5
0.6513943239253822 -0.08570246738797989 0.09176667701851975 144 238 144 0.5
0.6510708858243325 -0.08570823695534789 0.09173587115515651 144 238 144 0.5
0.6507463216231475 -0.08571407893684875 0.0917050811567958 144 238 144 0.5
0.6504206427729537 -0.08571999546317738 0.09167429871702343 144 238 144 0.5
0.6500938607248782 -0.08572598866502877 0.09164351552942522 144 238 144 0.5
0.6497659869300472 -0.08573206067309784 0.09161272328758704 144 238 144 0.5
0.649437032839588 -0.08573821361807955 0.09158191368509472 144 238 144 0.5
0.6491070099046266 -0.08574444963066884 0.09155107841553407 144 238 144 0.5
0.64877592957629 -0.08575077084156064 0.09152020917249096 144 238 144 0.5
0.6484438033057052 -0.08575717938144994 0.09148929764955122 144 238 144 0.5
0.6481106425439984 -0.08576367738103165 0.09145833554030067 144 238 144 0.5
0.6477764587422966 -0.0857702669710007 0.09142731453832516 144 238 144 0.5
0.6474412633517264 -0.08577695028205211 0.09139622633721053 144 238 144 0.5
0.6471050678234136 -0.08578372944488076 0.09136506263054252 144 238 144 0.5
0.6467678836084866 -0.08579060659018163 0.09133381511190715 144 238 144 0.5
0.646429722158071 -0.0857975838486496 0.09130247547489016 144 238 144 0.5
0.6460905949232942 -0.08580466335097973 0.09127103541307742 144 238 144 0.5
0.6457505133552823 -0.08581184722786687 0.0912394866200547 144 238 144 0.5
0.6454094889051623 -0.08581913761000601 0.09120782078940791 144 238 144 0.5
0.6450675330240605 -0.0858265366280921 0.09117602961472283 144 238 144 0.5
0.644724657163104 -0.08583404641282005 0.09114410478958532 144 238 144 0.5
0.6443808727734193 -0.08584166909488486 0.09111203800758123 144 238 144 0.5
0.644036191306133 -0.08584940680498143 0.09107982096229639 144 238 144 0.5
0.6436906242123719 -0.08585726167380472 0.0910474453473166 144 238 144 0.5
0.6433441829432629 -0.0858652358320497 0.09101490285622776 144 238 144 0.5
0.6429968789499322 -0.08587333141041129 0.09098218518261568 144 238 144 0.5
0.642648723683506 -0.08588155053958448 0.0909492840200661 144 238 144 0.5
0.6422997285951128 -0.08588989535026413 0.09091619106216503 144 238 144 0.5
0.641949905135878 -0.08589836797314525 0.09088289800249824 144 238 144 0.5
0.6415992647569287 -0.08590697053892277 0.09084939653465153 144 238 144 0.5
0.6412478189093915 -0.08591570517829165 0.09081567835221077 144 238 144 0.5
0.640895579044393 -0.08592457402194684 0.0907817351487618 144 238 144 0.5
0.64054255661306 -0.08593357920058325 0.09074755861789043 144 238 144 0.5
0.6401887630665192 -0.08594272284489587 0.09071314045318254 144 238 144 0.5
0.6398342098558969 -0.0859520070855796 0.0906784723482239 144 238 144 0.5
0.6394789084323205 -0.08596143405332944 0.09064354599660043 144 238 144 0.5
0.6391228702469159 -0.08597100587884031 0.0906083530918979 144 238 144 0.5
0.6387661067508104 -0.08598072469280713 0.09057288532770216 144 238 144 0.5
0.6384086293951304 -0.0859905926259249 0.09053713439759907 144 238 144 0.5
0.6380504496310019 -0.08600061180888857 0.09050109199517435 144 238 144 0.5
0.6376915789095531 -0.08601078437239301 0.09046474981401403 144 238 144 0.5
0.6373320286819102 -0.08602111244713322 0.09042809954770388 144 238 144 0.5
0.6369718103991994 -0.08603159816380412 0.0903911328898297 144 238 144 0.5
0.6366109355125478 -0.08604224365310072 0.09035384153397735 144 238 144 0.5
0.6362494154730819 -0.08605305104571791 0.09031621717373267 144 238 144 0.5
0.6358872617319283 -0.08606402247235062 0.09027825150268146 144 238 144 0.5
0.635524485740214 -0.08607516006369385 0.09023993621440961 144 238 144 0.5
0.6351610989490655 -0.08608646595044252 0.09020126300250289 144 238 144 0.5
0.6347971128096095 -0.08609794226329157 0.09016222356054722 144 238 144 0.5
0.6344325387729726 -0.08610959113293595 0.09012280958212837 144 238 144 0.5
0.6340673882902816 -0.08612141469007063 0.09008301276083222 144 238 144 0.5
0.6337016728126632 -0.08613341506539053 0.09004282479024457 144 238 144 0.5
0.6333354037912431 -0.08614559438959066 0.09000223736395117 144 238 144 0.5
0.63296859267715 -0.08615795479336584 0.08996124217553807 144 238 144 0.5
0.6326012509215094 -0.0861704984074111 0.08991983091859101 144 238 144 0.5
0.6322333899754484 -0.08618322736242139 0.08987799528669581 144 238 144 0.5
0.6318650212900931 -0.08619614378909163 0.0898357269734383 144 238 144 0.5
0.6314961563165709 -0.08620924981811678 0.08979301767240436 144 238 144 0.5
0.6311268065059614 -0.08622254758003764 0.08974985907783622 144 238 144 0.5
0.6307569830384742 -0.08623603830703216 0.0897062467097589 144 238 144 0.5
0.6303866961855427 -0.08624972021726174 0.08966218892373762 144 238 144 0.5
0.6300159560282294 -0.08626359089750578 0.08961769676415125 144 238 144 0.5
0.629644772647596 -0.08627764793454369 0.08957278127537872 144 238 144 0.5
0.6292731561247045 -0.08629188891515487 0.0895274535017989 144 238 144 0.5
0.6289011165406159 -0.08630631142611873 0.08948172448779054 144 238 144 0.5
0.628528663976394 -0.08632091305421466 0.08943560527773281 144 238 144 0.5
0.6281558085131 -0.08633569138622206 0.08938910691600445 144 238 144 0.5
0.6277825602317957 -0.08635064400892033 0.08934224044698434 144 238 144 0.5
0.6274089292135432 -0.0863657685090889 0.0892950169150514 144 238 144 0.5
0.6270349255394043 -0.08638106247350717 0.08924744736458451 144 238 144 0.5
0.626660559290441 -0.08639652348895452 0.08919954283996252 144 238 144 0.5
0.6262858405477153 -0.08641214914221036 0.08915131438556437 144 238 144 0.5
0.625910779392289 -0.08642793702005411 0.0891027730457689 144 238 144 0.5
0.6255353859052243 -0.08644388470926515 0.08905392986495504 144 238 144 0.5
0.6251596701675831 -0.08645998979662292 0.08900479588750165 144 238 144 0.5
0.6247836422604273 -0.08647624986890681 0.08895538215778763 144 238 144 0.5
0.6244073122648186 -0.0864926625128962 0.08890569972019188 144 238 144 0.5
0.6240306902618185 -0.08650922531537056 0.08885575961909312 144 238 144 0.5
0.6236537863324907 -0.0865259358631092 0.08880557289887053 144 238 144 0.5
0.6232766105578958 -0.08654279174289158 0.08875515060390288 144 238 144 0.5
0.6228991730190965 -0.08655979054149707 0.08870450377856902 144 238 144 0.5
0.6225214837971543 -0.08657692984570513 0.08865364346724787 144 238 144 0.5
0.622143552973131 -0.08659420724229511 0.0886025807143183 144 238 144 0.5
0.621765390628089 -0.08661162031804642 0.0885513265641592 144 238 144 0.5
0.6213870068430899 -0.08662916665973848 0.08849989206114946 144 238 144 0.5
0.6210084116991957 -0.08664684385415071 0.08844828824966797 144 238 144 0.5
0.6206296152774686 -0.0866646494880625 0.08839652617409363 144 238 144 0.5
0.6202506276589705 -0.08668258114825325 0.08834461687880532 144 238 144 0.5
0.619871458924763 -0.08670063642150234 0.08829257140818189 144 238 144 0.5
0.6194921191559084 -0.0867188128945892 0.08824040080660228 144 238 144 0.5
0.6191126184334677 -0.08673710815429328 0.08818811611844521 144 238 144 0.5
0.6187329668385046 -0.0867555197873939 0.08813572838808988 144 238 144 0.5
0.6183531744520804 -0.0867740453806705 0.08808324865991501 144 238 144 0.5
0.6179732513552568 -0.08679268252090248 0.08803068797829951 144 238 144 0.5
0.6175932076290958 -0.08681142879486928 0.08797805738762222 144 238 144 0.5
0.6172130533546593 -0.08683028178935022 0.08792536793226209 144 238 144 0.5
0.6168327986130095 -0.08684923909112478 0.08787263065659798 144 238 144 0.5
0.6164524534852079 -0.08686829828697232 0.08781985660500875 144 238 144 0.5
0.616072028052317 -0.08688745696367228 0.08776705682187333 144 238 144 0.5
0.6156915323953986 -0.08690671270800407 0.08771424235157059 144 238 144 0.5
0.6153109765955144 -0.08692606310674701 0.08766142423847942 144 238 144 0.5
0.6149303707337265 -0.0869455057466806 0.08760861352697871 144 238 144 0.5
0.6145497248910968 -0.08696503821458419 0.08755582126144734 144 238 144 0.5
0.6141690491486865 -0.08698465809723728 0.08750305848626407 144 238 144 0.5
0.6137883535875595 -0.08700436298141913 0.08745033624580809 144 238 144 0.5
0.6134076482887765 -0.08702415045390921 0.08739766558445808 144 238 144 0.5
0.6130269433333997 -0.08704401810148693 0.08734505754659301 144 238 144 0.5
0.6126462488024907 -0.08706396351093168 0.08729252317659171 144 238 144 0.5
0.6122655747771122 -0.08708398426902288 0.08724007351883309 144 238 144 0.5
0.6118849313383253 -0.0871040779625399 0.08718771961769602 144 238 144 0.5
0.6115043285671925 -0.08712424217826219 0.08713547251755942 144 238 144 0.5
0.6111237765447757 -0.08714447450296912 0.08708334326280216 144 238 144 0.5
0.6107432853521367 -0.08716477252344013 0.08703134289780314 144 238 144 0.5
0.6103628650703375 -0.0871851338264546 0.08697948246694122 144 238 144 0.5
0.6099825257804403 -0.08720555599879191 0.08692777301459531 144 238 144 0.5
0.6096022775635066 -0.0872260366272315 0.08687622558514428 144 238 144 0.5
0.6092221305005975 -0.0872465732985528 0.08682485122296689 144 238 144 0.5
0.6088420946727773 -0.08726716359953515 0.08677366097244234 144 238 144 0.5
0.6084621801611068 -0.08728780511695797 0.08672266587794931 144 238 144 0.5
0.6080823970466477 -0.08730849543760068 0.08667187698386675 144 238 144 0.5
0.607702755410462 -0.08732923214824265 0.08662130533457352 144 238 144 0.5
0.6073232653336124 -0.08735001283566333 0.08657096197444852 144 238 144 0.5
0.6069439368971596 -0.08737083508664212 0.08652085794787061 144 238 144 0.5
0.6065647801821664 -0.08739169648795839 0.08647100429921871 144 238 144 0.5
0.6061858052696947 -0.08741259462639157 0.08642141207287171 144 238 144 0.5
0.6058070222408062 -0.08743352708872106 0.08637209231320847 144 238 144 0.5
0.6054284411765631 -0.08745449146172626 0.0863230560646079 144 238 144 0.5
0.6050500721580272 -0.08747548533218655 0.08627431437144886 144 238 144 0.5
0.6046719252662603 -0.08749650628688138 0.08622587827811026 144 238 144 0.5
0.6042940105823238 -0.08751755191259017 0.08617775882897087 144 238 144 0.5
0.6039163381872814 -0.08753861979609227 0.08612996706840982 144 238 144 0.5
0.6035389181621942 -0.08755970752416707 0.08608251404080589 144 238 144 0.5
0.6031617605881239 -0.08758081268359402 0.08603541079053793 144 238 144 0.5
0.6027848755461326 -0.08760193286115249 0.08598866836198488 144 238 144 0.5
0.6024082731172823 -0.08762306564362193 0.08594229779952557 144 238 144 0.5
0.6020319633826348 -0.08764420861778169 0.08589631014753893 144 238 144 0.5
0.6016559564232523 -0.08766535937041121 0.08585071645040383 144 238 144 0.5
0.6012802623201967 -0.08768651548828987 0.08580552775249917 144 238 144 0.5
0.6009048911545296 -0.0877076745581971 0.08576075509820381 144 238 144 0.5
0.6005298530073135 -0.0877288341669123 0.08571640953189667 144 238 144 0.5
0.6001551579596102 -0.08774999190121485 0.08567250209795663 144 238 144 0.5
0.5997808160924814 -0.08777114534788419 0.08562904384076257 144 238 144 0.5
0.5994068374869881 -0.08779229209369972 0.08558604580469326 144 238 144 0.5
0.5990332322241946 -0.08781342972544082 0.08554351903412784 144 238 144 0.5
0.5986600103851616 -0.08783455582988688 0.08550147457344505 144 238 144 0.5
0.598287182050951 -0.0878556679938173 0.08545992346702382 144 238 144 0.5
0.5979147573026251 -0.08787676380401153 0.08541887675924302 144 238 144 0.5
0.5975427462212455 -0.08789784084724896 0.0853783454944815 144 238 144 0.5
0.597171158887874 -0.08791889671030896 0.0853383407171182 144 238 144 0.5
0.5968000053835731 -0.08793992897997098 0.08529887347153199 144 238 144 0.5
0.5964292957894044 -0.08796093524301439 0.08525995480210176 144 238 144 0.5
0.5960590401864301 -0.08798191308621864 0.0852215957532064 144 238 144 0.5
0.5956892486557119 -0.08800286009636307 0.08518380736922479 144 238 144 0.5
0.595319931278312 -0.08802377386022711 0.0851466006945358 144 238 144 0.5
0.5949510981352921 -0.08804465196459019 0.08510998677351836 144 238 144 0.5
0.5945827593077132 -0.08806549199623175 0.08507397665055123 144 238 144 0.5
0.5942149248766395 -0.08808629154193108 0.08503858137001352 144 238 144 0.5
0.5938476049231318 -0.08810704818846762 0.085003811976284 144 238 144 0.5
0.593480809528252 -0.08812775952262082 0.08496967951374156 144 238 144 0.5
0.5931145478827561 -0.08814842322641886 0.08493619441963503 144 238 144 0.5
0.5927488112735769 -0.08816903889731885 0.08490335492198531 144 238 144 0.5
0.59238357440646 -0.0881896079067054 0.08487114794153598 144 238 144 0.5
0.5920188113618604 -0.08821013169285939 0.08483955997262375 144 238 144 0.5
0.5916544962202335 -0.0882306116940618 0.08480857750958537 144 238 144 0.5
0.5912906030620341 -0.08825104934859347 0.08477818704675744 144 238 144 0.5
0.5909271059677176 -0.08827144609473535 0.08474837507847674 144 238 144 0.5
0.5905639790177394 -0.08829180337076833 0.08471912809907996 144 238 144 0.5
0.5902011962925542 -0.08831212261497333 0.08469043260290378 144 238 144 0.5
0.5898387318726165 -0.08833240526563133 0.08466227508428485 144 238 144 0.5
0.589476559838383 -0.08835265276102307 0.08463464203755998 144 238 144 0.5
0.5891146542703085 -0.08837286653942956 0.08460751995706584 144 238 144 0.5
0.5887529892488477 -0.08839304803913171 0.08458089533713913 144 238 144 0.5
0.5883915388544557 -0.08841319869841044 0.08455475467211652 144 238 144 0.5
0.5880302771675882 -0.08843331995554662 0.08452908445633474 144 238 144 0.5
0.5876691782686996 -0.08845341324882118 0.08450387118413046 144 238 144 0.5
0.5873082162382458 -0.08847348001651503 0.08447910134984042 144 238 144 0.5
0.5869473651566812 -0.08849352169690909 0.08445476144780127 144 238 144 0.5
0.5865865991044618 -0.08851353972828424 0.08443083797234978 144 238 144 0.5
0.586225892162042 -0.08853353554892142 0.0844073174178226 144 238 144 0.5
0.5858652184098773 -0.08855351059710151 0.08438418627855644 144 238 144 0.5
0.5855045519284229 -0.08857346631110545 0.084361431048888 144 238 144 0.5
0.5851438667981328 -0.0885934041292142 0.08433903822315396 144 238 144 0.5
0.5847831370994643 -0.08861332548970852 0.08431699429569108 144 238 144 0.5
0.5844223369128715 -0.08863323183086941 0.08429528576083602 144 238 144 0.5
0.5840614403188096 -0.08865312459097778 0.08427389911292552 144 238 144 0.5
0.5837004213977336 -0.08867300520831452 0.08425282084629623 144 238 144 0.5
0.5833392542300987 -0.08869287512116056 0.0842320374552849 144 238 144 0.5
0.5829779128963603 -0.0887127357677968 0.0842115354342282 144 238 144 0.5
0.5826163714769732 -0.08873258858650412 0.08419130127746283 144 238 144 0.5
0.5822546040523928 -0.08875243501556349 0.08417132147932549 144 238 144 0.5
0.5818925847030741 -0.08877227649325577 0.0841515825341529 144 238 144 0.5
0.5815302875094724 -0.08879211445786189 0.08413207093628174 144 238 144 0.5
0.5811676865520429 -0.08881195034766276 0.08411277318004874 144 238 144 0.5
0.5808047559112406 -0.08883178560093928 0.08409367575979057 144 238 144 0.5
0.5804414696675196 -0.08885162165597243 0.08407476516984388 144 238 144 0.5
0.5800778019013372 -0.08887145995104295 0.0840560279045455 144 238 144 0.5
0.5797137266931476 -0.0888913019244319 0.08403745045823208 144 238 144 0.5
0.5793492181234058 -0.08891114901442013 0.0840190193252403 144 238 144 0.5
0.5789842502725671 -0.08893100265928856 0.08400072099990688 144 238 144 0.5
0.5786187972210864 -0.08895086429731808 0.08398254197656847 144 238 144 0.5
0.5782528330494192 -0.08897073536678962 0.08396446874956184 144 238 144 0.5
0.5778863318380205 -0.08899061730598411 0.08394648781322368 144 238 144 0.5
0.5775192676673454 -0.08901051155318243 0.08392858566189067 144 238 144 0.5
0.5771516146178493 -0.08903041954666549 0.08391074878989949 144 238 144 0.5
0.576783346769987 -0.08905034272471421 0.08389296369158687 144 238 144 0.5
0.5764144382042137 -0.08907028252560946 0.08387521686128951 144 238 144 0.5
0.5760448630009849 -0.08909024038763225 0.08385749479334413 144 238 144 0.5
0.5756745952407545 -0.08911021774906344 0.08383978398208736 144 238 144 0.5
0.5753036090039796 -0.08913021604818384 0.08382207092185599 144 238 144 0.5
0.5749318783711145 -0.08915023672327448 0.08380434210698667 144 238 144 0.5
0.5745593774226143 -0.0891702812126162 0.08378658403181616 144 238 144 0.5
0.5741860802389341 -0.08919035095448996 0.08376878319068107 144 238 144 0.5
0.5738119609005291 -0.08921044738717665 0.08375092607791818 144 238 144 0.5
0.5734369934878547 -0.08923057194895717 0.08373299918786412 144 238 144 0.5
0.5730611520813658 -0.08925072607811244 0.08371498901485566 144 238 144 0.5
0.5726844107615173 -0.08927091121292334 0.08369688205322945 144 238 144 0.5
0.5723067436087649 -0.08929112879167084 0.08367866479732224 144 238 144 0.5
0.5719281247035632 -0.0893113802526358 0.08366032374147069 144 238 144 0.5
0.5715485281263679 -0.08933166703409914 0.0836418453800115 144 238 144 0.5
0.571167927957634 -0.08935199057434179 0.08362321620728141 144 238 144 0.5
0.5707862982778152 -0.08937235231164467 0.08360442271761702 144 238 144 0.5
0.5704036131673693 -0.08939275368428862 0.0835854514053552 144 238 144 0.5
0.5700198467067501 -0.0894131961305546 0.08356628876483252 144 238 144 0.5
0.5696349729764127 -0.08943368108872349 0.08354692129038575 144 238 144 0.5
0.5692489660568125 -0.08945420999707619 0.08352733547635152 144 238 144 0.5
0.5688618000284048 -0.08947478429389369 0.08350751781706663 144 238 144 0.5
0.5684734489716442 -0.08949540541745683 0.0834874548068677 144 238 144 0.5
0.5680838869669862 -0.08951607480604654 0.08346713294009145 144 238 144 0.5
0.567693088094886 -0.08953679389794371 0.08344653871107459 144 238 144 0.5
0.5673010264357986 -0.08955756413142926 0.08342565861415381 144 238 144 0.5
0.5669076760701792 -0.08957838694478412 0.08340447914366583 144 238 144 0.5
0.566513011078483 -0.08959926377628917 0.08338298679394734 144 238 144 0.5
0.5661170055411653 -0.08962019606422533 0.08336116805933506 144 238 144 0.5
0.5657196335386797 -0.08964118524687359 0.08333900943416561 144 238 144 0.5
0.5653208691514842 -0.08966223276251471 0.08331649741277579 144 238 144 0.5
0.5649206864600321 -0.08968334004942966 0.08329361848950229 144 238 144 0.5
0.5645190595447791 -0.08970450854589936 0.08327035915868176 144 238 144 0.5
0.5641159624861805 -0.08972573969020474 0.08324670591465096 144 238 144 0.5
0.5637113693646908 -0.08974703492062666 0.08322264525174654 144 238 144 0.5
0.5633052542607656 -0.08976839567544606 0.08319816366430521 144 238 144 0.5
0.56289759125486 -0.08978982339294383 0.0831732476466637 144 238 144 0.5
0.5624883544274293 -0.08981131951140094 0.0831478836931587 144 238 144 0.5
0.5620775178589283 -0.0898328854690982 0.08312205829812691 144 238 144 0.5
0.5616650556298126 -0.08985452270431661 0.08309575795590504 144 238 144 0.5
0.561250941820537 -0.08987623265533703 0.08306896916082974 144 238 144 0.5
0.5608351505115566 -0.08989801676044036 0.08304167840723777 144 238 144 0.5
0.5604176557833258 -0.08991987645790762 0.08301387218946574 144 238 144 0.5
0.5599984317163016 -0.08994181318601956 0.08298553700185046 144 238 144 0.5
0.5595774523909384 -0.08996382838305717 0.08295665933872863 144 238 144 0.5
0.5591546918876912 -0.08998592348730132 0.0829272256944369 144 238 144 0.5
0.558730124287015 -0.09000809993703296 0.08289722256331199 144 238 144 0.5
0.5583037236693652 -0.09003035917053298 0.0828666364396906 144 238 144 0.5
0.5578754641151968 -0.0900527026260823 0.08283545381790941 144 238 144 0.5
0.5574453197049651 -0.09007513174196183 0.08280366119230517 144 238 144 0.5
0.5570132645191251 -0.09009764795645246 0.08277124505721455 144 238 144 0.5
0.556579272638132 -0.09012025270783512 0.08273819190697422 144 238 144 0.5
0.5561433181424411 -0.09014294743439069 0.08270448823592093 144 238 144 0.5
0.5557053751125075 -0.09016573357440014 0.08267012053839136 144 238 144 0.5
0.5552654176287861 -0.09018861256614431 0.08263507530872223 144 238 144 0.5
0.554823419771731 -0.0902115858479042 0.08259933904125011 144 238 144 0.5
0.5543793596108468 -0.09023465433004586 0.08256290226270772 144 238 144 0.5
0.5539332311718219 -0.09025781681127636 0.08252577162941072 144 238 144 0.5
0.553485032469393 -0.09028107156238802 0.08248795783007067 144 238 144 0.5
0.5530347615182964 -0.09030441685417312 0.08244947155339906 144 238 144 0.5
0.5525824163332689 -0.090327850957424 0.08241032348810749 144 238 144 0.5
0.5521279949290469 -0.09035137214293289 0.08237052432290749 144 238 144 0.5
0.5516714953203672 -0.09037497868149216 0.08233008474651063 144 238 144 0.5
0.5512129155219662 -0.09039866884389404 0.08228901544762844 144 238 144 0.5
0.5507522535485806 -0.09042244090093086 0.08224732711497248 144 238 144 0.5
0.550289507414947 -0.0904462931233949 0.0822050304372543 144 238 144 0.5
0.5498246751358019 -0.09047022378207849 0.08216213610318543 144 238 144 0.5
0.5493577547258817 -0.09049423114777386 0.08211865480147744 144 238 144 0.5
0.5488887441999222 -0.09051831349127343 0.08207459722084176 144 238 144 0.5
0.5484176415726619 -0.09054246908336935 0.08202997404999017 144 238 144 0.5
0.5479444448588365 -0.09056669619485395 0.0819847959776341 144 238 144 0.5
0.5474691520731828 -0.09059099309651958 0.08193907369248511 144 238 144 0.5
0.5469917612304369 -0.09061535805915849 0.08189281788325474 144 238 144 0.5
0.5465122703453358 -0.090639789353563 0.08184603923865456 144 238 144 0.5
0.5460306774326156 -0.0906642852505254 0.0817987484473961 144 238 144 0.5
0.5455469805070133 -0.09068884402083795 0.0817509561981909 144 238 144 0.5
0.5450611775832653 -0.09071346393529302 0.08170267317975051 144 238 144 0.5
0.5445732666761083 -0.09073814326468284 0.08165391008078651 144 238 144 0.5
0.5440832458002786 -0.09076288027979972 0.08160467759001042 144 238 144 0.5
0.543591112970513 -0.090787673251436 0.0815549863961338 144 238 144 0.5
0.5430968662015483 -0.09081252045038392 0.08150484718786821 144 238 144 0.5
0.5426005035081193 -0.09083742014743587 0.08145427065392506 144 238 144 0.5
0.5421020229049655 -0.09086237061338398 0.08140326748301616 144 238 144 0.5
0.541601422406822 -0.09088737011902068 0.08135184836385294 144 238 144 0.5
0.5410987000284255 -0.09091241693513819 0.08130002398514692 144 238 144 0.5
0.5405938537845126 -0.09093750933252882 0.0812478050356097 144 238 144 0.5
0.54008688168982 -0.09096264558198493 0.08119520220395278 144 238 144 0.5
0.539577781759084 -0.09098782395429873 0.08114222617888772 144 238 144 0.5
0.5390665520070413 -0.09101304272026257 0.08108888764912608 144 238 144 0.5
0.5385531904484285 -0.09103830015066874 0.08103519730337942 144 238 144 0.5
0.5380376950979822 -0.09106359451630949 0.08098116583035929 144 238 144 0.5
0.5375200639704389 -0.0910889240879772 0.0809268039187772 144 238 144 0.5
0.5370002950805353 -0.09111428713646406 0.08087212225734475 144 238 144 0.5
0.5364783864430078 -0.09113968193256246 0.08081713153477346 144 238 144 0.5
0.5359543360725918 -0.09116510674706473 0.08076184243977473 144 238 144 0.5
0.5354281419840264 -0.09119055985076299 0.0807062656610604 144 238 144 0.5
0.5348998021920471 -0.09121603951444968 0.08065041188734193 144 238 144 0.5
0.5343693147113904 -0.09124154400891701 0.0805942918073308 144 238 144 0.5
0.5338366775567929 -0.09126707160495737 0.08053791610973861 144 238 144 0.5
0.5333018887429907 -0.09129262057336296 0.08048129548327684 144 238 144 0.5
0.532764946284721 -0.09131818918492612 0.08042444061665713 144 238 144 0.5
0.5322258481967203 -0.09134377571043918 0.08036736219859096 144 238 144 0.5
0.531684592493725 -0.0913693784206944 0.08031007091778991 144 238 144 0.5
0.5311411771904716 -0.09139499558648405 0.08025257746296553 144 238 144 0.5
0.530595600301697 -0.09142062547860044 0.08019489252282935 144 238 144 0.5
0.5300478598421374 -0.09144626636783591 0.08013702678609295 144 238 144 0.5
0.5294979538265295 -0.09147191652498271 0.08007899094146785 144 238 144 0.5
0.5289458802696086 -0.09149757422083322 0.08002079567766547 144 238 144 0.5
0.5283916371861141 -0.09152323772617961 0.07996245168339765 144 238 144 0.5
0.5278352225907812 -0.09154890531181421 0.0799039696473758 144 238 144 0.5
0.5272766344983463 -0.09157457524852934 0.07984536025831146 144 238 144 0.5
0.5267158709235461 -0.09160024580711729 0.07978663420491618 144 238 144 0.5
0.5261529298811172 -0.09162591525837034 0.07972780217590152 144 238 144 0.5
0.5255878093857962 -0.09165158187308083 0.079668874859979 144 238 144 0.5
0.5250205074523194 -0.09167724392204102 0.07960986294586021 144 238 144 0.5
0.5244510220954238 -0.0917028996760432 0.07955077712225667 144 238 144 0.5
0.5238793513298455 -0.09172854740587968 0.07949162807787995 144 238 144 0.5
0.5233054931703217 -0.09175418538234277 0.07943242650144158 144 238 144 0.5
0.5227294456315884 -0.09177981187622472 0.07937318308165314 144 238 144 0.5
0.5221512067283809 -0.09180542515831794 0.07931390850722597 144 238 144 0.5
0.5215707744754391 -0.09183102349941459 0.079254613466872 144 238 144 0.5
0.5209881468874976 -0.09185660517030698 0.07919530864930256 144 238 144 0.5
0.5204033219792933 -0.09188216844178748 0.07913600474322925 144 238 144 0.5
0.5198162977655625 -0.0919077115846483 0.07907671243736357 144 238 144 0.5
0.519227072261042 -0.09193323286968183 0.07901744242041717 144 238 144 0.5
0.5186356434804683 -0.09195873056768028 0.07895820538110145 144 238 144 0.5
0.5180420094385779 -0.091984202949436 0.07889901200812806 144 238 144 0.5
0.5174461681501077 -0.09200964828574128 0.07883987299020855 144 238 144 0.5
0.516848117629794 -0.0920350648473884 0.07878079901605442 144 238 144 0.5
0.5162478558923733 -0.09206045090516964 0.07872180077437728 144 238 144 0.5
0.5156453809525824 -0.09208580472987732 0.07866288895388862 144 238 144 0.5
0.515040690825158 -0.09211112459230375 0.07860407424330002 144 238 144 0.5
0.5144337835248344 -0.09213640876324125 0.07854536733132285 144 238 144 0.5
0.5138246570663522 -0.09216165551348202 0.07848677890666901 144 238 144 0.5
0.513213309464446 -0.0921868631138184 0.0784283196580499 144 238 144 0.5
0.5125997387338525 -0.0922120298350427 0.07837000027417701 144 238 144 0.5
0.511983942889308 -0.0922371539479472 0.07831183144376194 144 238 144 0.5
0.5113659199455495 -0.0922622337233242 0.07825382385551623 144 238 144 0.5
0.5107456679173134 -0.092287267431966 0.0781959881981514 144 238 144 0.5
0.510123184819336 -0.09231225334466489 0.07813833516037905 144 238 144 0.5
0.5094984686663543 -0.09233718973221319 0.07808087543091069 144 238 144 0.5
0.5088715174731048 -0.09236207486540317 0.0780236196984579 144 238 144 0.5
0.5082423292543239 -0.09238690701502714 0.0779665786517322 144 238 144 0.5
0.5076109020247482 -0.09241168445187736 0.07790976297944514 144 238 144 0.5
0.5069772337991144 -0.09243640544674615 0.07785318337030829 144 238 144 0.5
0.5063413225921573 -0.0924610682704259 0.07779685051303305 144 238 144 0.5
0.505703166418617 -0.09248567119370875 0.07774077509633127 144 238 144 0.5
0.5050627632932283 -0.09251021248738703 0.07768496780891433 144 238 144 0.5
0.5044201112307278 -0.09253469042225308 0.0776294393394938 144 238 144 0.5
0.5037752082458521 -0.09255910326909918 0.0775742003767812 144 238 144 0.5
0.5031280523533376 -0.09258344929871762 0.0775192616094881 144 238 144 0.5
0.5024786415679212 -0.0926077267819007 0.07746463372632607 144 238 144 0.5
0.5018269739043391 -0.09263193398944071 0.07741032741600665 144 238 144 0.5
0.5011730473773283 -0.09265606919212996 0.07735635336724135 144 238 144 0.5
0.5005168600016251 -0.09268013066076075 0.07730272226874178 144 238 144 0.5
0.4998584097919661 -0.09270411666612534 0.07724944480921944 144 238 144 0.5
0.4991976956263514 -0.09272802555505927 0.07719653139811103 144 238 144 0.5
0.4985347392744344 -0.09275185769088 0.07714398503916053 144 238 144 0.5
0.4978695872235249 -0.09277561561423614 0.07709180073968713 144 238 144 0.5
0.49720228719007675 -0.09279930197404869 0.07703997310937115 144 238 144 0.5
0.49653288689053837 -0.09282291941923874 0.07698849675789245 144 238 144 0.5
0.49586143404136007 -0.09284647059872742 0.07693736629493104 144 238 144 0.5
0.4951879763589918 -0.09286995816143571 0.07688657633016688 144 238 144 0.5
0.49451256155988405 -0.09289338475628477 0.07683612147328 144 238 144 0.5
0.4938352373604868 -0.09291675303219561 0.07678599633395042 144 238 144 0.5
0.4931560514772502 -0.0929400656380893 0.0767361955218581 144 238 144 0.5
0.49247505162662475 -0.09296332522288697 0.0766867136466831 144 238 144 0.5
0.4917922855250606 -0.09298653443550967 0.07663754531810536 144 238 144 0.5
0.49110780088900774 -0.09300969592487841 0.07658868514580491 144 238 144 0.5
0.49042164543491656 -0.09303281233991433 0.07654012773946176 144 238 144 0.5
0.48973386687923715 -0.09305588632953844 0.07649186770875586 144 238 144 0.5
0.4890445129384179 -0.09307892054267196 0.07644389966336718 144 238 144 0.5
0.48835363132891285 -0.09310191762823575 0.0763962182129759 144 238 144 0.5
0.4876612697671703 -0.09312488023515099 0.07634881796726192 144 238 144 0.5
0.4869674759696404 -0.09314781101233875 0.07630169353590525 144 238 144 0.5
0.4862722976527734 -0.09317071260872006 0.07625483952858589 144 238 144 0.5
0.4855757825330195 -0.09319358767321605 0.07620825055498381 144 238 144 0.5
0.48487797832682894 -0.09321643885474773 0.07616192122477905 144 238 144 0.5
0.4841789327506518 -0.09323926880223621 0.0761158461476516 144 238 144 0.5
0.4834786935209385 -0.09326208016460258 0.07607001993328145 144 238 144 0.5
0.4827773083541389 -0.09328487559076783 0.07602443719134863 144 238 144 0.5
0.4820748249667036 -0.09330765772965312 0.0759790925315331 144 238 144 0.5
0.4813712910750828 -0.09333042923017948 0.07593398056351491 144 238 144 0.5
0.48066675439572637 -0.09335319274126795 0.07588909589697403 144 238 144 0.5
0.47996126264508265 -0.09337595091183971 0.07584443314159034 144 238 144 0.5
0.479254863539606 -0.09339870639081571 0.07579998690704408 144 238 144 0.5
0.47854760479574454 -0.09342146182711707 0.07575575180301516 144 238 144 0.5
0.4778395341299485 -0.09344421986966484 0.07571172243918357 144 238 144 0.5
0.477130699258668 -0.0934669831673801 0.07566789342522931 144 238 144 0.5
0.47642114789835344 -0.09348975436918394 0.07562425937083238 144 238 144 0.5
0.47571092776545476 -0.0935125361239974 0.07558081488567277 144 238 144 0.5
0.4750000865764223 -0.09353533108074158 0.07553755457943048 144 238 144 0.5
0.47428867204770636 -0.09355814188833754 0.07549447306178556 144 238 144 0.5
0.473576731895757 -0.09358097119570634 0.07545156494241796 144 238 144 0.5
0.4728643138370245 -0.09360382165176907 0.07540882483100769 144 238 144 0.5
0.4721514655879592 -0.09362669590544678 0.07536624733723478 144 238 144 0.5
0.4714382348650111 -0.09364959660566058 0.0753238270707792 144 238 144 0.5
0.4707246693846284 -0.09367252640133154 0.07528155864132086 144 238 144 0.5
0.4700108168632654 -0.09369548794138065 0.07523943665853995 144 238 144 0.5
0.46929672501737046 -0.09371848387472904 0.07519745573211645 144 238 144 0.5
0.4685824415633936 -0.09374151685029779 0.07515561047173025 144 238 144 0.5
0.4678680142177849 -0.0937645895170079 0.0751138954870614 144 238 144 0.5
0.4671534906969948 -0.09378770452378053 0.07507230538778992 144 238 144 0.5
0.4664389187174735 -0.09381086451953671 0.07503083478359582 144 238 144 0.5
0.46572434599567114 -0.09383407215319753 0.07498947828415906 144 238 144 0.5
0.46500982024803783 -0.09385733007368402 0.07494823049915963 144 238 144 0.5
0.464295389191024 -0.0938806409299173 0.07490708603827759 144 238 144 0.5
0.46358110054107976 -0.0939040073708184 0.07486603951119293 144 238 144 0.5
0.4628670020146552 -0.0939274320453084 0.07482508552758561 144 238 144 0.5
0.46215314132820073 -0.0939509176023084 0.07478421869713565 144 238 144 0.5
0.4614395661981644 -0.09397446669073953 0.07474343362952299 144 238 144 0.5
0.4607263243410005 -0.09399808195952268 0.07470272493442778 144 238 144 0.5
0.46001346347315725 -0.09402176605757905 0.07466208722152995 144 238 144 0.5
0.4593010313110848 -0.09404552163382965 0.07462151510050949 144 238 144 0.5
0.45858907557123346 -0.0940693513371956 0.07458100318104643 144 238 144 0.5
0.4578776439700532 -0.09409325781659794 0.07454054607282075 144 238 144 0.5
0.45716678422399454 -0.09411724372095777 0.07450013838551243 144 238 144 0.5
0.4564565440495075 -0.09414131169919612 0.0744597747288015 144 238 144 0.5
0.4557469711630423 -0.09416546440023409 0.07441944971236795 144 238 144 0.5
0.4550381132810494 -0.09418970447299277 0.07437915794589182 144 238 144 0.5
0.4543300181199786 -0.0942140345663932 0.07433889403905306 144 238 144 0.5
0.4536227333962802 -0.09423845732935641 0.07429865260153166 144 238 144 0.5
0.45291630682640466 -0.09426297541080356 0.0742584282430077 144 238 144 0.5
0.4522107861268 -0.09428759145965572 0.07421821557316098 144 238 144 0.5
0.4515062190139204 -0.09431230812483388 0.0741780092016718 144 238 144 0.5
0.4508026532042143 -0.09433712805525914 0.07413780373822002 144 238 144 0.5
0.45010013641413166 -0.09436205389985257 0.07409759379248564 144 238 144 0.5
0.4493987163601228 -0.09438708830753524 0.07405737397414863 144 238 144 0.5
0.44869844075863785 -0.09441223392722824 0.07401713889288905 144 238 144 0.5
0.4479993573261271 -0.09443749340785264 0.0739768831583869 144 238 144 0.5
0.44730151377904076 -0.09446286939832949 0.07393660138032214 144 238 144 0.5
0.44660495783382903 -0.09448836454757986 0.07389628816837478 144 238 144 0.5
0.44590973720694205 -0.09451398150452485 0.07385593813222484 144 238 144 0.5
0.44521589961483005 -0.0945397229180855 0.07381554588155231 144 238 144 0.5
0.44452349277394343 -0.0945655914371829 0.07377510602603721 144 238 144 0.5
0.4438325644007321 -0.09459158971073811 0.07373461317535951 144 238 144 0.5
0.4431431622116444 -0.09461772038767229 0.07369406193919914 144 238 144 0.5
0.44245533392313463 -0.09464398611690635 0.07365344692723629 144 238 144 0.5
0.44176912725165085 -0.09467038954736143 0.07361276274915086 144 238 144 0.5
0.44108458991364335 -0.0946969333279586 0.07357200401462285 144 238 144 0.5
0.4404017696255623 -0.09472362010761895 0.07353116533333229 144 238 144 0.5
0.43972071410385805 -0.09475045253526353 0.07349024131495915 144 238 144 0.5
0.43904147106498054 -0.0947774332598134 0.07344922656918344 144 238 144 0.5
0.43836408822538014 -0.09480456493018967 0.07340811570568517 144 238 144 0.5
0.4376886133015072 -0.0948318501953134 0.07336690333414433 144 238 144 0.5
0.43701509400981164 -0.09485929170410563 0.07332558406424095 144 238 144 0.5
0.43634357806674384 -0.09488689210548747 0.07328415250565498 144 238 144 0.5
0.435674113188754 -0.09491465404837994 0.07324260326806645 144 238 144 0.5
0.4350067470922923 -0.09494258018170418 0.0732009309611554 144 238 144 0.5
0.434341527493807 -0.09497067315438128 0.07315913019460164 144 238 144 0.5
0.43367850210975223 -0.09499893561533218 0.07311719557808546 144 238 144 0.5
0.43301771865657623 -0.09502737021347801 0.07307512172128675 144 238 144 0.5
0.4323592248507292 -0.09505597959773986 0.07303290323388545 144 238 144 0.5
0.4317030684086614 -0.0950847664170388 0.07299053472556162 144 238 144 0.5
0.43104929704682293 -0.09511373332029589 0.07294801080599526 144 238 144 0.5
0.4303979584816641 -0.09514288295643221 0.07290532608486634 144 238 144 0.5
0.42974910042963504 -0.09517221797436881 0.07286247517185489 144 238 144 0.5
0.4291027588915312 -0.09520174032875538 0.07281945358763899 144 238 144 0.5
0.428458913941341 -0.09523144866001078 0.07277626120171155 144 238 144 0.5
0.4278175289834152 -0.0952613406207088 0.07273289917978057 144 238 144 0.5
0.4271785674192442 -0.09529141386325359 0.07268936868777641 144 238 144 0.5
0.42654199265031834 -0.09532166604004942 0.07264567089162946 144 238 144 0.5
0.4259077680781264 -0.09535209480350065 0.07260180695726999 144 238 144 0.5
0.4252758571041623 -0.09538269780601127 0.07255777805062864 144 238 144 0.5
0.42464622312991473 -0.09541347269998561 0.07251358533763565 144 238 144 0.5
0.42401882955687403 -0.09544441713782793 0.07246922998422144 144 238 144 0.5
0.42339363978653055 -0.09547552877194242 0.07242471315631634 144 238 144 0.5
0.4227706172203749 -0.09550680525473335 0.0723800360198508 144 238 144 0.5
0.4221497252598973 -0.09553824423860491 0.07233519974075517 144 238 144 0.5
0.4215309273065884 -0.09556984337596136 0.07229020548495983 144 238 144 0.5
0.4209141867619383 -0.0956016003192069 0.07224505441839518 144 238 144 0.5
0.4202994670274377 -0.09563351272074579 0.07219974770699158 144 238 144 0.5
0.419686731504577 -0.09566557823298225 0.07215428651667949 144 238 144 0.5
0.4190759435948464 -0.09569779450832051 0.0721086720133892 144 238 144 0.5
0.41846706669973655 -0.09573015919916479 0.07206290536305116 144 238 144 0.5
0.417860064220736 -0.09576266995791943 0.0720169877315956 144 238 144 0.5
0.4172548995593387 -0.09579532443698846 0.07197092028495315 144 238 144 0.5
0.41665153611703337 -0.09582812028877621 0.07192470418905411 144 238 144 0.5
0.41604993729531037 -0.09586105516568691 0.07187834060982881 144 238 144 0.5
0.41545006649566 -0.09589412672012478 0.0718318307132077 144 238 144 0.5
0.41485188711957294 -0.09592733260449404 0.07178517566512112 144 238 144 0.5
0.41425536256853934 -0.09596067047119895 0.07173837663149946 144 238 144 0.5
0.4136604562440498 -0.09599413797264371 0.07169143477827312 144 238 144 0.5
0.4130671315475947 -0.09602773276123258 0.07164435127137246 144 238 144 0.5
0.4124753518806645 -0.09606145248936979 0.07159712727672791 144 238 144 0.5
0.4118850806447495 -0.09609529480945952 0.07154976396026982 144 238 144 0.5
0.41129628124134016 -0.09612925737390605 0.07150226248792858 144 238 144 0.5
0.41070891707192697 -0.09616333783511362 0.0714546240256346 144 238 144 0.5
0.4101229515379986 -0.09619753384548652 0.0714068497393181 144 238 144 0.5
0.4095383480410488 -0.09623184305742875 0.07135894079490972 144 238 144 0.5
0.4089550699825664 -0.09626626312334473 0.07131089835833976 144 238 144 0.5
0.4083730807640417 -0.09630079169563861 0.07126272359553859 144 238 144 0.5
0.40779234378696533 -0.09633542642671468 0.07121441767243658 144 238 144 0.5
0.4072128224528275 -0.09637016496897713 0.07116598175496411 144 238 144 0.5
0.4066344801631186 -0.0964050049748302 0.0711174170090516 144 238 144 0.5
0.40605728031932925 -0.09643994409667812 0.07106872460062941 144 238 144 0.5
0.4054811863229498 -0.09647497998692511 0.07101990569562792 144 238 144 0.5
0.40490616157547055 -0.09651011029797542 0.07097096145997753 144 238 144 0.5
0.404332169478382 -0.09654533268223328 0.07092189305960862 144 238 144 0.5
0.4037591734331747 -0.09658064479210292 0.07087270166045159 144 238 144 0.5
0.40318713684133883 -0.09661604427998852 0.0708233884284368 144 238 144 0.5
0.4026160231043633 -0.09665152879829449 0.0707739545294945 144 238 144 0.5
0.4020457956237418 -0.09668709599942481 0.0707244011295554 144 238 144 0.5
0.40147641780096305 -0.0967227435357838 0.07067472939454968 144 238 144 0.5
0.4009078530375175 -0.09675846905977573 0.07062494049040777 144 238 144 0.5
0.4003400647348957 -0.0967942702238048 0.07057503558306003 144 238 144 0.5
0.39977301629458784 -0.09683014468027525 0.07052501583843684 144 238 144 0.5
0.3992066711180845 -0.09686609008159129 0.07047488242246863 144 238 144 0.5
0.3986409926068761 -0.09690210408015718 0.07042463650108574 144 238 144 0.5
0.39807594416245284 -0.09693818432837716 0.07037427924021859 144 238 144 0.5
0.3975114891863054 -0.09697432847865539 0.07032381180579754 144 238 144 0.5
0.3969475910799241 -0.09701053418339618 0.07027323536375296 144 238 144 0.5
0.3963842132447994 -0.09704679909500373 0.0702225510800153 144 238 144 0.5
0.3958213190824217 -0.09708312086588226 0.07017176012051489 144 238 144 0.5
0.39525887199427967 -0.09711949714843608 0.07012086365118197 144 238 144 0.5
0.3946968353818671 -0.09715592559506928 0.07006986283794724 144 238 144 0.5
0.3941351726466728 -0.09719240385818612 0.07001875884674093 144 238 144 0.5
0.3935738471901872 -0.0972289295901909 0.06996755284349342 144 238 144 0.5
0.39301282241390056 -0.0972655004434878 0.06991624599413511 144 238 144 0.5
0.3924520617193035 -0.09730211407048106 0.06986483946459639 144 238 144 0.5
0.39189152850788633 -0.09733876812357492 0.06981333442080763 144 238 144 0.5
0.39133118618113943 -0.09737546025517362 0.06976173202869922 144 238 144 0.5
0.3907709981405533 -0.09741218811768133 0.06971003345420153 144 238 144 0.5
0.39021092778761846 -0.09744894936350235 0.06965823986324496 144 238 144 0.5
0.38965093852382504 -0.09748574164504088 0.0696063524217599 144 238 144 0.5
0.38909099375066375 -0.09752256261470117 0.06955437229567676 144 238 144 0.5
0.3885310568696247 -0.0975594099248874 0.06950230065092586 144 238 144 0.5
0.38797109128219703 -0.09759628122800396 0.06945013865343747 144 238 144 0.5
0.3874110603898742 -0.09763317417645484 0.0693978874691423 144 238 144 0.5
0.3868509275941451 -0.09767008642264437 0.06934554826397056 144 238 144 0.5
0.3862906562965 -0.09770701561897681 0.06929312220385263 144 238 144 0.5
0.38573020989842943 -0.09774395941785634 0.06924061045471891 144 238 144 0.5
0.3851695518014237 -0.09778091547168724 0.06918801418249979 144 238 144 0.5
0.3846086454069734 -0.09781788143287372 0.06913533455312562 144 238 144 0.5
0.38404745411656893 -0.09785485495382001 0.06908257273252684 144 238 144 0.5
0.38348594133170066 -0.09789183368693036 0.0690297298866338 144 238 144 0.5
0.38292407045385896 -0.09792881528460896 0.06897680718137689 144 238 144 0.5
0.3823618048845342 -0.09796579739926004 0.06892380578268649 144 238 144 0.5
0.38179910802521694 -0.09800277768328788 0.06887072685649301 144 238 144 0.5
0.38123594327739757 -0.09803975378909666 0.0688175715687268 144 238 144 0.5
0.38067227404256476 -0.09807672336909072 0.06876434108531812 144 238 144 0.5
0.3801080637222124 -0.09811368407567413 0.06871103657219765 144 238 144 0.5
0.37954327571782903 -0.09815063356125116 0.06865765919529564 144 238 144 0.5
0.37897787343090533 -0.09818756947822609 0.06860421012054245 144 238 144 0.5
0.37841182026293146 -0.09822448947900311 0.06855069051386847 144 238 144 0.5
