ply
format ascii 1.0
element vertex 629
property float x
property float y
property float z
property uchar red
property uchar green
property uchar blue
property float size
end_header
0.19668440403307139 0.06936158005946601 0.34893053926987916 144 238 144 0.5
0.19669331462260228 0.0693480674075907 0.34891616079172505 144 238 144 0.5
0.19670104455252266 0.06933474911926485 0.3489012199979781 144 238 144 0.5
0.19670755965182546 0.06932163044140435 0.3488856992807388 144 238 144 0.5
0.19671282574950363 0.06930871662092514 0.3488695810321075 144 238 144 0.5
0.19671680867455002 0.06929601290474305 0.34885284764418456 144 238 144 0.5
0.19671947432665945 0.06928352452976566 0.3488354815463573 144 238 144 0.5
0.1967208053055122 0.06927125436889942 0.3488174739752732 144 238 144 0.5
0.19672082234828345 0.06925919989641854 0.3487988362805818 144 238 144 0.5
0.196719551491215 0.0692473578364769 0.34877958260656117 144 238 144 0.5
0.19671701877054887 0.06923572491322832 0.3487597270974901 144 238 144 0.5
0.1967132502225271 0.06922429785082665 0.34873928389764663 144 238 144 0.5
0.19670827188339157 0.06921307337342576 0.34871826715130927 144 238 144 0.5
0.19670210978938424 0.06920204820517942 0.3486966910027562 144 238 144 0.5
0.1966947899767471 0.06919121907024155 0.3486745695962661 144 238 144 0.5
0.1966863384817221 0.06918058269276592 0.34865191707611687 144 238 144 0.5
0.1966767813405512 0.06917013579690641 0.3486287475865871 144 238 144 0.5
0.19666614458947643 0.06915987510681686 0.34860507527195517 144 238 144 0.5
0.19665445426473963 0.06914979734665111 0.34858091427649934 144 238 144 0.5
0.19664173640258284 0.06913989924056298 0.34855627874449807 144 238 144 0.5
0.19662801703924798 0.06913017751270632 0.34853118282022955 144 238 144 0.5
0.1966133222109771 0.06912062888723501 0.34850564064797235 144 238 144 0.5
0.19659767795401206 0.06911125008830284 0.3484796663720046 144 238 144 0.5
0.19658111030459485 0.06910203784006369 0.3484532741366047 144 238 144 0.5
0.19656364529896742 0.06909298886667135 0.34842647808605104 144 238 144 0.5
0.19654530897337175 0.06908409989227972 0.3483992923646221 144 238 144 0.5
0.19652612736404987 0.06907536764104259 0.348371731116596 144 238 144 0.5
0.19650612650724358 0.06906678883711384 0.34834380848625107 144 238 144 0.5
0.19648533243919497 0.0690583602046473 0.3483155386178659 144 238 144 0.5
0.196463771196146 0.0690500784677968 0.34828693565571867 144 238 144 0.5
0.19644146881433858 0.06904194035071619 0.3482580137440878 144 238 144 0.5
0.1964184513300147 0.06903394257755929 0.34822878702725163 144 238 144 0.5
0.19639474477941632 0.06902608187248 0.3481992696494885 144 238 144 0.5
0.1963703751987854 0.0690183549596321 0.34816947575507673 144 238 144 0.5
0.19634536862436383 0.06901075856316943 0.3481394194882946 144 238 144 0.5
0.19631975109239375 0.06900328940724589 0.3481091149934207 144 238 144 0.5
0.1962935486391169 0.06899594421601525 0.34807857641473305 144 238 144 0.5
0.19626678730077537 0.0689887197136314 0.34804781789651024 144 238 144 0.5
0.19623949311361116 0.06898161262424816 0.34801685358303064 144 238 144 0.5
0.1962116921138661 0.0689746196720194 0.3479856976185724 144 238 144 0.5
0.1961834103377823 0.0689677375810989 0.3479543641474141 144 238 144 0.5
0.19615467382160162 0.06896096307564058 0.3479228673138339 144 238 144 0.5
0.19612550860156602 0.06895429287979822 0.3478912212621102 144 238 144 0.5
0.19609594071391753 0.06894772371772567 0.3478594401365213 144 238 144 0.5
0.19606599619489806 0.06894125231357678 0.3478275380813458 144 238 144 0.5
0.19603570108074955 0.06893487539150542 0.3477955292408617 144 238 144 0.5
0.19600508140771405 0.0689285896756654 0.34776342775934765 144 238 144 0.5
0.19597416321203343 0.06892239189021056 0.34773124778108183 144 238 144 0.5
0.19594297252994972 0.06891627875929475 0.3476990034503426 144 238 144 0.5
0.1959115353977048 0.0689102470070718 0.34766670891140833 144 238 144 0.5
0.1958798778515408 0.06890429335769556 0.34763437830855753 144 238 144 0.5
0.19584802592769948 0.06889841453531986 0.34760202578606825 144 238 144 0.5
0.19581600566242285 0.06889260726409856 0.34756966548821894 144 238 144 0.5
0.19578384309195293 0.06888686826818549 0.347537311559288 144 238 144 0.5
0.19575156425253168 0.06888119427173449 0.3475049781435538 144 238 144 0.5
0.19571919518040104 0.06887558199889941 0.34747267938529475 144 238 144 0.5
0.19568676191180295 0.06887002817383407 0.3474404294287891 144 238 144 0.5
0.19565429048297941 0.06886452952069233 0.3474082424183151 144 238 144 0.5
0.19562180693017234 0.06885908276362804 0.34737613249815125 144 238 144 0.5
0.1955893372896238 0.06885368462679503 0.34734411381257585 144 238 144 0.5
0.19555690759757557 0.0688483318343471 0.3473122005058673 144 238 144 0.5
0.19552454389026983 0.06884302111043818 0.3472804067223039 144 238 144 0.5
0.19549227220394835 0.06883774917922204 0.347248746606164 144 238 144 0.5
0.19546011857485324 0.06883251276485253 0.3472172343017259 144 238 144 0.5
0.19542810903922633 0.06882730859148352 0.3471858839532681 144 238 144 0.5
0.1953962696333097 0.06882213338326883 0.3471547097050688 144 238 144 0.5
0.1953646263933452 0.06881698386436229 0.34712372570140637 144 238 144 0.5
0.1953332053555749 0.06881185675891778 0.3470929460865593 144 238 144 0.5
0.1953020325562407 0.06880674879108908 0.34706238500480574 144 238 144 0.5
0.1952711340315846 0.0688016566850301 0.34703205660042413 144 238 144 0.5
0.1952405358178485 0.06879657716489465 0.34700197501769287 144 238 144 0.5
0.19521026395127442 0.06879150695483656 0.34697215440089024 144 238 144 0.5
0.19518034446810428 0.06878644277900968 0.3469426088942946 144 238 144 0.5
0.19515080340458005 0.06878138136156785 0.3469133526421843 144 238 144 0.5
0.1951216667969437 0.06877631942666491 0.34688439978883767 144 238 144 0.5
0.19509296068143722 0.06877125369845472 0.3468557644785331 144 238 144 0.5
0.19506471109430254 0.06876618090109109 0.346827460855549 144 238 144 0.5
0.19503694407178163 0.06876109775872788 0.3467995030641635 144 238 144 0.5
0.19500968565011642 0.06875600099551893 0.34677190524865525 144 238 144 0.5
0.19498296186554892 0.06875088733561807 0.3467446815533024 144 238 144 0.5
0.1949567987543211 0.06874575350317917 0.34671784612238327 144 238 144 0.5
0.19493122235267485 0.06874059622235602 0.3466914131001763 144 238 144 0.5
0.19490625869685213 0.0687354122173025 0.34666539663095985 144 238 144 0.5
0.19488193382309504 0.06873019821217247 0.3466398108590123 144 238 144 0.5
0.1948582737676454 0.0687249509311197 0.34661466992861184 144 238 144 0.5
0.19483530456674525 0.0687196670982981 0.346589987984037 144 238 144 0.5
0.19481305225663648 0.0687143434378615 0.346565779169566 144 238 144 0.5
0.19479154287356115 0.0687089766739637 0.34654205762947726 144 238 144 0.5
0.1947708024537611 0.06870356353075856 0.34651883750804907 144 238 144 0.5
0.1947508570334784 0.06869810073239994 0.34649613294955983 144 238 144 0.5
0.19473173264895496 0.06869258500304169 0.34647395809828785 144 238 144 0.5
0.19471345533643272 0.06868701306683761 0.34645232709851154 144 238 144 0.5
0.19469605113215369 0.06868138164794155 0.34643125409450914 144 238 144 0.5
0.19467954607235985 0.0686756874705074 0.3464107532305592 144 238 144 0.5
0.19466396619329307 0.06866992725868892 0.3463908386509399 144 238 144 0.5
0.19464933753119537 0.06866409773664002 0.3463715244999296 144 238 144 0.5
0.19463568612230875 0.06865819562851451 0.3463528249218066 144 238 144 0.5
0.19462303800287506 0.06865221765846624 0.34633475406084946 144 238 144 0.5
0.19461141920913638 0.06864616055064904 0.3463173260613363 144 238 144 0.5
0.19460085577733466 0.06864002102921678 0.3463005550675457 144 238 144 0.5
0.19459137374371174 0.06863379581832324 0.3462844552237558 144 238 144 0.5
0.19458299914450972 0.06862748164212233 0.34626904067424497 144 238 144 0.5
0.1945757580159705 0.06862107522476785 0.34625432556329167 144 238 144 0.5
0.19456967639433606 0.06861457329041368 0.34624032403517424 144 238 144 0.5
0.1945647803158483 0.0686079725632136 0.34622705023417094 144 238 144 0.5
0.1945610958167493 0.0686012697673215 0.3462145183045601 144 238 144 0.5
0.19455864893328093 0.06859446162689119 0.3462027423906202 144 238 144 0.5
0.19455746333822554 0.06858754507075272 0.34619173523403246 144 238 144 0.5
0.1945575364005242 0.06858051930565523 0.34618149396644177 144 238 144 0.5
0.1945588490590465 0.06857338496119611 0.3461720059690535 144 238 144 0.5
0.19456138200210332 0.06856614268867113 0.34616325847437884 144 238 144 0.5
0.19456511591800568 0.06855879313937616 0.34615523871492904 144 238 144 0.5
0.19457003149506438 0.06855133696460698 0.34614793392321497 144 238 144 0.5
0.19457610942159043 0.0685437748156594 0.34614133133174807 144 238 144 0.5
0.1945833303858947 0.06853610734382927 0.34613541817303933 144 238 144 0.5
0.1945916750762883 0.06852833520041239 0.34613018167959997 144 238 144 0.5
0.19460112418108197 0.06852045903670458 0.34612560908394113 144 238 144 0.5
0.19461165838858666 0.06851247950400162 0.346121687618574 144 238 144 0.5
0.19462325838711336 0.06850439725359937 0.34611840451600967 144 238 144 0.5
0.19463590486497304 0.06849621293679364 0.34611574700875936 144 238 144 0.5
0.1946495785104765 0.06848792720488023 0.3461137023293342 144 238 144 0.5
0.19466426001193474 0.06847954070915496 0.34611225771024523 144 238 144 0.5
0.1946799300576587 0.06847105410091366 0.34611140038400384 144 238 144 0.5
0.19469656933595936 0.06846246803145212 0.3461111175831211 144 238 144 0.5
0.19471415853514756 0.06845378315206617 0.346111396540108 144 238 144 0.5
0.19473267834353428 0.06844500011405162 0.34611222448747586 144 238 144 0.5
0.1947521094494304 0.0684361195687043 0.34611358865773567 144 238 144 0.5
0.1947724325411469 0.06842714216732 0.34611547628339884 144 238 144 0.5
0.1947936283069947 0.06841806856119458 0.34611787459697635 144 238 144 0.5
0.19481567743528475 0.06840889940162379 0.3461207708309794 144 238 144 0.5
0.19483856061432797 0.0683996353399035 0.34612415221791915 144 238 144 0.5
0.19486225853243522 0.06839027702732951 0.3461280059903067 144 238 144 0.5
0.1948867518779175 0.06838082511519764 0.34613231938065325 144 238 144 0.5
0.19491202133908575 0.06837128025480368 0.34613707962147 144 238 144 0.5
0.19493804760425093 0.06836164309744348 0.3461422739452681 144 238 144 0.5
0.19496481136172386 0.06835191429441285 0.3461478895845586 144 238 144 0.5
0.1949922932998155 0.06834209449700758 0.3461539137718527 144 238 144 0.5
0.1950204741068369 0.06833218435652352 0.3461603337396616 144 238 144 0.5
0.19504933447109885 0.06832218452425645 0.34616713672049637 144 238 144 0.5
0.1950788550809123 0.06831209565150223 0.34617430994686826 144 238 144 0.5
0.19510901662458824 0.06830191838955664 0.3461818406512883 144 238 144 0.5
0.1951397997904376 0.06829165338971549 0.34618971606626786 144 238 144 0.5
0.19517118526677127 0.06828130130327462 0.3461979234243179 144 238 144 0.5
0.19520315374190017 0.06827086278152984 0.3462064499579497 144 238 144 0.5
0.1952356859041353 0.06826033847577695 0.3462152828996742 144 238 144 0.5
0.19526876244178754 0.06824972903731179 0.3462244094820029 144 238 144 0.5
0.1953023640431678 0.06823903511743015 0.3462338169374466 144 238 144 0.5
0.19533647139658708 0.06822825736742788 0.34624349249851666 144 238 144 0.5
0.1953710651903562 0.06821739643860075 0.3462534233977242 144 238 144 0.5
0.1954061261127862 0.06820645298224462 0.34626359686758035 144 238 144 0.5
0.19544163485218802 0.06819542764965529 0.3462740001405964 144 238 144 0.5
0.19547757209687247 0.06818432109212856 0.34628462044928326 144 238 144 0.5
0.19551391853515057 0.06817313396096024 0.34629544502615217 144 238 144 0.5
0.19555065485533327 0.06816186690744619 0.3463064611037143 144 238 144 0.5
0.19558776174573136 0.06815052058288218 0.34631765591448094 144 238 144 0.5
0.19562521989465598 0.06813909563856407 0.3463290166909631 144 238 144 0.5
0.19566300999041789 0.06812759272578763 0.34634053066567194 144 238 144 0.5
0.19570111272132804 0.06811601249584871 0.34635218507111865 144 238 144 0.5
0.19573950877569748 0.06810435560004312 0.3463639671398144 144 238 144 0.5
0.19577817884183701 0.06809262268966665 0.34637586410427024 144 238 144 0.5
0.19581710360805768 0.06808081441601514 0.3463878631969975 144 238 144 0.5
0.19585626376267032 0.0680689314303844 0.3463999516505072 144 238 144 0.5
0.1958956399939859 0.06805697438407023 0.34641211669731053 144 238 144 0.5
0.19593521299031538 0.06804494392836848 0.3464243455699187 144 238 144 0.5
0.19597496343996962 0.06803284071457492 0.3464366255008427 144 238 144 0.5
0.19601487203125956 0.06802066539398541 0.3464489437225939 144 238 144 0.5
0.1960549194524962 0.06800841861789574 0.3464612874676833 144 238 144 0.5
0.19609508639199041 0.06799610103760173 0.346473643968622 144 238 144 0.5
0.19613535353805317 0.06798371330439922 0.3464860004579214 144 238 144 0.5
0.1961757015789954 0.06797125606958397 0.3464983441680925 144 238 144 0.5
0.19621611120312793 0.06795872998445186 0.34651066233164646 144 238 144 0.5
0.1962565630987618 0.06794613570029864 0.3465229421810944 144 238 144 0.5
0.19629703795420791 0.06793347386842022 0.3465351709489476 144 238 144 0.5
0.19633751645777725 0.06792074514011232 0.34654733586771713 144 238 144 0.5
0.19637797929778059 0.06790795016667078 0.346559424169914 144 238 144 0.5
0.19641840716252898 0.06789508959939146 0.3465714230880496 144 238 144 0.5
0.1964587807403334 0.06788216408957012 0.3465833198546351 144 238 144 0.5
0.19649908071950467 0.06786917428850262 0.34659510170218133 144 238 144 0.5
0.19653928778835375 0.06785612084748473 0.34660675586319983 144 238 144 0.5
0.19657938263519165 0.06784300441781231 0.34661826957020153 144 238 144 0.5
0.1966193459483292 0.06782982565078113 0.3466296300556977 144 238 144 0.5
0.19665915841607737 0.06781658519768706 0.34664082455219936 144 238 144 0.5
0.1966988007267471 0.06780328370982588 0.34665184029221785 144 238 144 0.5
0.19673825356864927 0.0677899218384934 0.3466626645082641 144 238 144 0.5
0.1967774976300949 0.06777650023498548 0.34667328443284945 144 238 144 0.5
0.19681651359939484 0.06776301955059788 0.346683687298485 144 238 144 0.5
0.19685528216486003 0.06774948043662646 0.34669386033768185 144 238 144 0.5
0.19689378401480145 0.06773588354436699 0.3467037907829512 144 238 144 0.5
0.19693199983753 0.06772222952511534 0.34671346586680424 144 238 144 0.5
0.19696991032135655 0.06770851903016727 0.34672287282175196 144 238 144 0.5
0.19700749615459215 0.06769475271081864 0.34673199888030576 144 238 144 0.5
0.19704473802554764 0.06768093121836524 0.3467408312749767 144 238 144 0.5
0.19708161662253398 0.06766705520410292 0.3467493572382757 144 238 144 0.5
0.19711811263386214 0.06765312531932746 0.34675756400271435 144 238 144 0.5
0.19715420674784295 0.06763914221533467 0.34676543880080346 144 238 144 0.5
0.19718987965278748 0.06762510654342038 0.3467729688650544 144 238 144 0.5
0.19722511203700657 0.06761101895488043 0.3467801414279781 144 238 144 0.5
0.19725988458881116 0.06759688010101059 0.34678694372208596 144 238 144 0.5
0.19729417799651217 0.0675826906331067 0.34679336297988894 144 238 144 0.5
0.19732797294842058 0.06756845120246459 0.34679938643389824 144 238 144 0.5
0.19736125013284725 0.06755416246038005 0.34680500131662517 144 238 144 0.5
0.1973939902381032 0.0675398250581489 0.3468101948605806 144 238 144 0.5
0.19742617395249923 0.06752543964706698 0.34681495429827597 144 238 144 0.5
0.19745778196434638 0.06751100687843008 0.34681926686222225 144 238 144 0.5
0.1974887949619556 0.06749652740353403 0.34682311978493074 144 238 144 0.5
0.1975191936336377 0.06748200187367462 0.3468265002989124 144 238 144 0.5
0.1975489586677037 0.06746743094014768 0.3468293956366785 144 238 144 0.5
0.19757807077346554 0.06745281525467807 0.34683179304511996 144 238 144 0.5
0.19760651787647987 0.06743815561640919 0.3468336847122258 144 238 144 0.5
0.19763430563519213 0.06742345318674448 0.3468350749680261 144 238 144 0.5
0.19766144238270245 0.06740870918172717 0.34683596997393734 144 238 144 0.5
0.19768793645211116 0.06739392481740045 0.34683637589137584 144 238 144 0.5
0.19771379617651838 0.06737910130980755 0.3468362988817584 144 238 144 0.5
0.19773902988902425 0.06736423987499164 0.346835745106501 144 238 144 0.5
0.197763645922729 0.06734934172899595 0.3468347207270202 144 238 144 0.5
0.19778765261073278 0.06733440808786369 0.3468332319047324 144 238 144 0.5
0.19781105828613582 0.06731944016763805 0.34683128480105424 144 238 144 0.5
0.19783387128203828 0.06730443918436224 0.3468288855774019 144 238 144 0.5
0.1978560999315404 0.06728940635407948 0.3468260403951919 144 238 144 0.5
0.19787775256774234 0.06727434289283296 0.3468227554158406 144 238 144 0.5
0.19789883752374426 0.0672592500166659 0.3468190368007646 144 238 144 0.5
0.19791936313264638 0.06724412894162149 0.34681489071138016 144 238 144 0.5
0.19793933772754888 0.06722898088374296 0.34681032330910383 144 238 144 0.5
0.19795876964155193 0.06721380705907347 0.3468053407553518 144 238 144 0.5
0.19797766720775575 0.06719860868365628 0.3467999492115407 144 238 144 0.5
0.19799603875926053 0.06718338697353457 0.34679415483908693 144 238 144 0.5
0.19801389262916638 0.06716814314475156 0.34678796379940696 144 238 144 0.5
0.19803123715057355 0.06715287841335041 0.3467813822539171 144 238 144 0.5
0.19804808065658228 0.06713759399537443 0.34677441636403383 144 238 144 0.5
0.19806443148029262 0.0671222911068667 0.3467670722911735 144 238 144 0.5
0.19808029795480497 0.06710697096387051 0.3467593561967527 144 238 144 0.5
0.19809568841321928 0.06709163478242904 0.34675127424218777 144 238 144 0.5
0.1981106111886359 0.06707628377858547 0.34674283258889504 144 238 144 0.5
0.198125074614155 0.06706091916838307 0.34673403739829106 144 238 144 0.5
0.19813908702287666 0.06704554216786497 0.34672489483179225 144 238 144 0.5
0.19815265674790117 0.06703015399307442 0.3467154110508149 144 238 144 0.5
0.1981657921223287 0.06701475586005466 0.3467055922167757 144 238 144 0.5
0.19817850147925947 0.06699934898484883 0.34669544449109074 144 238 144 0.5
0.19819079315179358 0.06698393458350017 0.34668497403517673 144 238 144 0.5
0.19820267547303128 0.06696851387205188 0.34667418701045 144 238 144 0.5
0.19821415677607274 0.06695308806654715 0.3466630895783269 144 238 144 0.5
0.19822524539401815 0.06693765838302922 0.3466516879002239 144 238 144 0.5
0.19823594965996766 0.06692222603754128 0.3466399881375574 144 238 144 0.5
0.19824627790702157 0.06690679224612653 0.34662799645174397 144 238 144 0.5
0.19825623846828 0.06689135822482817 0.3466157190041999 144 238 144 0.5
0.19826583967684308 0.06687592518968943 0.34660316195634167 144 238 144 0.5
0.19827508986581108 0.06686049435675352 0.34659033146958557 144 238 144 0.5
0.19828399736828414 0.06684506694206362 0.3465772337053482 144 238 144 0.5
0.19829257051736246 0.06682964416166293 0.3465638748250459 144 238 144 0.5
0.19830081764614632 0.06681422723159466 0.3465502609900952 144 238 144 0.5
0.19830874708773574 0.06679881736790205 0.34653639836191236 144 238 144 0.5
0.19831636717523102 0.06678341578662828 0.3465222931019139 144 238 144 0.5
0.19832368624173233 0.06676802370381654 0.34650795137151624 144 238 144 0.5
0.19833071262033986 0.06675264233551009 0.3464933793321358 144 238 144 0.5
0.19833745464415375 0.06673727289775207 0.346478583145189 144 238 144 0.5
0.1983439206462743 0.06672191660658575 0.34646356897209224 144 238 144 0.5
0.1983501189598016 0.0667065746780543 0.34644834297426197 144 238 144 0.5
0.19835605791783584 0.0666912483282009 0.34643291131311466 144 238 144 0.5
0.1983617458534772 0.06667593877306882 0.3464172801500666 144 238 144 0.5
0.19836719109982595 0.06666064722870123 0.34640145564653446 144 238 144 0.5
0.19837240198998224 0.06664537491114132 0.34638544396393445 144 238 144 0.5
0.1983773868570462 0.06663012303643231 0.346369251263683 144 238 144 0.5
0.1983821540341181 0.06661489282061744 0.34635288370719663 144 238 144 0.5
0.1983867118542981 0.06659968547973988 0.34633634745589176 144 238 144 0.5
0.19839106865068634 0.06658450222984286 0.34631964867118475 144 238 144 0.5
0.1983952327563831 0.06656934428696956 0.3463027935144921 144 238 144 0.5
0.19839921250448847 0.06655421286716319 0.3462857881472302 144 238 144 0.5
0.19840301622810272 0.06653910918646697 0.3462686387308154 144 238 144 0.5
0.19840665226032597 0.06652403446092407 0.3462513514266642 144 238 144 0.5
0.1984101289342585 0.06650898990657776 0.34623393239619304 144 238 144 0.5
0.19841345458300036 0.0664939767394712 0.3462163878008183 144 238 144 0.5
0.19841663753965186 0.06647899617564759 0.34619872380195643 144 238 144 0.5
0.19841968613731317 0.06646404943115018 0.34618094656102394 144 238 144 0.5
0.19842260870908443 0.06644913772202214 0.34616306223943716 144 238 144 0.5
0.19842541358806584 0.06643426226430667 0.3461450769986124 144 238 144 0.5
0.19842810910735761 0.06641942427404701 0.3461269969999663 144 238 144 0.5
0.19843070360005993 0.06640462496728634 0.34610882840491525 144 238 144 0.5
0.19843320539927298 0.06638986556006789 0.34609057737487553 144 238 144 0.5
0.1984356228380969 0.06637514726843484 0.3460722500712637 144 238 144 0.5
0.19843796424963195 0.0663604713084304 0.34605385265549604 144 238 144 0.5
0.19844023796697835 0.0663458388960978 0.3460353912889893 144 238 144 0.5
0.19844245232323615 0.06633125124748022 0.3460168721331595 144 238 144 0.5
0.19844461565150567 0.06631670957862087 0.3459983013494233 144 238 144 0.5
0.19844673628488702 0.06630221510556297 0.345979685099197 144 238 144 0.5
0.19844882255648041 0.06628776904434971 0.3459610295438973 144 238 144 0.5
0.19845088279938605 0.06627337261102433 0.34594234084494024 144 238 144 0.5
0.1984529253467041 0.06625902702162999 0.3459236251637425 144 238 144 0.5
0.19845495853153478 0.06624473349220991 0.3459048886617204 144 238 144 0.5
0.19845699068697822 0.06623049323880731 0.34588613750029046 144 238 144 0.5
0.1984590301461347 0.06621630747746536 0.34586737784086896 144 238 144 0.5
0.1984610852421043 0.06620217742422733 0.3458486158448725 144 238 144 0.5
0.19846316430798727 0.06618810429513639 0.3458298576737173 144 238 144 0.5
0.1984652756768838 0.06617408930623572 0.34581110948882 144 238 144 0.5
0.1984674276818941 0.06616013367356859 0.3457923774515969 144 238 144 0.5
0.1984696286561183 0.06614623861317816 0.3457736677234645 144 238 144 0.5
0.1984718869326566 0.06613240534110762 0.3457549864658391 144 238 144 0.5
0.19847421084460923 0.06611863507340023 0.3457363398401372 144 238 144 0.5
0.19847660872507633 0.06610492902609914 0.3457177340077752 144 238 144 0.5
0.19847908890715812 0.06609128841524761 0.3456991751301696 144 238 144 0.5
0.19848165972395476 0.06607771445688883 0.34568066936873687 144 238 144 0.5
0.19848432950856648 0.06606420836706597 0.34566222288489323 144 238 144 0.5
0.1984871065940934 0.06605077136182227 0.34564384184005525 144 238 144 0.5
0.19848999931363584 0.06603740465720094 0.3456255323956393 144 238 144 0.5
0.19849301600029381 0.06602410946924515 0.3456073007130618 144 238 144 0.5
0.19849616498716763 0.06601088701399815 0.34558915295373926 144 238 144 0.5
0.19849945460735743 0.06599773850750312 0.3455710952790881 144 238 144 0.5
0.19850289319396347 0.06598466516580329 0.34555313385052455 144 238 144 0.5
0.19850648908008584 0.06597166820494184 0.34553527482946533 144 238 144 0.5
0.19851024998921787 0.06595874874277768 0.3455175239980397 144 238 144 0.5
0.1985141761906843 0.06594590669658931 0.34549988250052166 144 238 144 0.5
0.19851826296421698 0.0659331411800231 0.34548234837674624 144 238 144 0.5
0.19852250549789138 0.06592045129196325 0.3454649196095214 144 238 144 0.5
0.19852689897978293 0.06590783613129389 0.34544759418165505 144 238 144 0.5
0.19853143859796712 0.06589529479689916 0.34543037007595523 144 238 144 0.5
0.19853611954051942 0.06588282638766321 0.34541324527522993 144 238 144 0.5
0.1985409369955153 0.0658704300024702 0.345396217762287 144 238 144 0.5
0.19854588615103028 0.06585810474020426 0.34537928551993463 144 238 144 0.5
0.19855096219513965 0.06584584969974953 0.3453624465309806 144 238 144 0.5
0.19855616031591913 0.06583366397999016 0.3453456987782329 144 238 144 0.5
0.19856147570144406 0.06582154667981031 0.3453290402444995 144 238 144 0.5
0.19856690353978984 0.06580949689809408 0.34531246891258854 144 238 144 0.5
0.19857243901903204 0.06579751373372565 0.34529598276530776 144 238 144 0.5
0.1985780773272461 0.06578559628558918 0.34527957978546525 144 238 144 0.5
0.19858381365250752 0.06577374365256877 0.345263257955869 144 238 144 0.5
0.19858964318289166 0.0657619549335486 0.34524701525932694 144 238 144 0.5
0.19859556110647417 0.06575022922741279 0.34523084967864703 144 238 144 0.5
0.19860156261133036 0.06573856563304552 0.3452147591966373 144 238 144 0.5
0.19860764288553576 0.06572696324933089 0.34519874179610566 144 238 144 0.5
0.1986137971171658 0.0657154211751531 0.3451827954598602 144 238 144 0.5
0.19862002049429603 0.06570393850939622 0.3451669181707087 144 238 144 0.5
0.1986263082050018 0.06569251435094445 0.3451511079114592 144 238 144 0.5
0.19863265543735872 0.06568114779868194 0.34513536266491984 144 238 144 0.5
0.19863905737944215 0.0656698379514928 0.34511968041389834 144 238 144 0.5
0.1986455092193276 0.06565858390826118 0.34510405914120285 144 238 144 0.5
0.19865200614509057 0.06564738476787126 0.34508849682964127 144 238 144 0.5
0.19865854334480648 0.06563623962920717 0.34507299146202164 144 238 144 0.5
0.19866511600655082 0.06562514759115302 0.3450575410211518 144 238 144 0.5
0.19867171931839905 0.06561410775259299 0.34504214348983986 144 238 144 0.5
0.1986783484684266 0.0656031192124112 0.3450267968508937 144 238 144 0.5
0.198684998644709 0.06559218106949181 0.34501149908712136 144 238 144 0.5
0.19869166503532168 0.06558129242271898 0.34499624818133073 144 238 144 0.5
0.19869834282834015 0.06557045237097683 0.34498104211632985 144 238 144 0.5
0.19870502721183986 0.06555966001314951 0.34496587887492663 144 238 144 0.5
0.19871171337389626 0.06554891444812118 0.3449507564399292 144 238 144 0.5
0.19871839650258485 0.06553821477477595 0.3449356727941453 144 238 144 0.5
0.19872507178598106 0.065527560091998 0.344920625920383 144 238 144 0.5
0.19873173441216038 0.06551694949867148 0.34490561380145035 144 238 144 0.5
0.1987383795691983 0.06550638209368051 0.3448906344201553 144 238 144 0.5
0.1987450024451702 0.06549585697590922 0.3448756857593057 144 238 144 0.5
0.1987515982281517 0.06548537324424179 0.3448607658017096 144 238 144 0.5
0.19875816210621816 0.06547492999756237 0.344845872530175 144 238 144 0.5
0.19876468926744506 0.06546452633475507 0.3448310039275099 144 238 144 0.5
0.19877117489990787 0.06545416135470403 0.34481615797652215 144 238 144 0.5
0.1987776141916821 0.06544383415629346 0.3448013326600199 144 238 144 0.5
0.1987840023308432 0.06543354383840742 0.34478652596081094 144 238 144 0.5
0.19879033450546654 0.0654232894999301 0.3447717358617033 144 238 144 0.5
0.19879660590362774 0.06541307023974566 0.3447569603455049 144 238 144 0.5
0.19880281171340225 0.06540288515673821 0.344742197395024 144 238 144 0.5
0.19880894712286543 0.0653927333497919 0.3447274449930681 144 238 144 0.5
0.19881500732009286 0.0653826139177909 0.3447127011224457 144 238 144 0.5
0.1988209874931599 0.06537252595961933 0.3446979637659643 144 238 144 0.5
0.19882688283014213 0.06536246857416134 0.3446832309064321 144 238 144 0.5
0.19883268851911495 0.06535244086030109 0.3446685005266571 144 238 144 0.5
0.19883839974815384 0.0653424419169227 0.3446537706094471 144 238 144 0.5
0.1988440117053343 0.06533247084291034 0.3446390391376103 144 238 144 0.5
0.19884951957873176 0.06532252673714815 0.34462430409395456 144 238 144 0.5
0.19885491855642168 0.06531260869852024 0.3446095634612878 144 238 144 0.5
0.19886020382647962 0.0653027158259108 0.3445948152224181 144 238 144 0.5
0.19886537057698095 0.06529284721820394 0.34458005736015335 144 238 144 0.5
0.19887041399600114 0.06528300197428384 0.3445652878573015 144 238 144 0.5
0.19887532927161575 0.06527317919303462 0.34455050469667065 144 238 144 0.5
0.1988801115919001 0.06526337797334043 0.34453570586106863 144 238 144 0.5
0.19888475614492984 0.06525359741408543 0.34452088933330355 144 238 144 0.5
0.19888925811878028 0.06524383661415374 0.34450605309618326 144 238 144 0.5
0.19889361270152697 0.06523409467242951 0.34449119513251575 144 238 144 0.5
0.19889781508124538 0.06522437068779686 0.34447631342510904 144 238 144 0.5
0.19890186044601094 0.06521466375913999 0.34446140595677105 144 238 144 0.5
0.19890574398389912 0.06520497298534303 0.34444647071030987 144 238 144 0.5
0.19890946088298544 0.0651952974652901 0.3444315056685333 144 238 144 0.5
0.19891300633134534 0.06518563629786536 0.3444165088142494 144 238 144 0.5
0.1989163755170543 0.06517598858195296 0.3444014781302662 144 238 144 0.5
0.19891956362818777 0.06516635341643703 0.3443864115993917 144 238 144 0.5
0.19892256585282117 0.06515672990020173 0.34437130720443365 144 238 144 0.5
0.19892537737903007 0.06514711713213119 0.34435616292820015 144 238 144 0.5
0.19892799339488992 0.06513751421110957 0.3443409767534993 144 238 144 0.5
0.19893040908847612 0.06512792023602101 0.34432574666313887 144 238 144 0.5
0.19893261964786416 0.06511833430574963 0.3443104706399269 144 238 144 0.5
0.1989346202611295 0.0651087555191796 0.3442951466666714 144 238 144 0.5
0.19893640611634775 0.06509918297519508 0.34427977272618027 144 238 144 0.5
0.19893797240159417 0.0650896157726802 0.3442643468012616 144 238 144 0.5
0.19893931430494438 0.06508005301051908 0.3442488668747233 144 238 144 0.5
0.19894042701447373 0.06507049378759588 0.34423333092937325 144 238 144 0.5
0.1989413057182578 0.06506093720279478 0.34421773694801966 144 238 144 0.5
0.19894194560437203 0.06505138235499988 0.3442020829134702 144 238 144 0.5
0.19894234186089182 0.06504182834309533 0.344186366808533 144 238 144 0.5
0.19894248967589268 0.06503227426596528 0.34417058661601607 144 238 144 0.5
0.19894238423745012 0.06502271922249388 0.3441547403187274 144 238 144 0.5
0.19894202073363954 0.06501316231156527 0.34413882589947475 144 238 144 0.5
0.19894139435253647 0.06500360263206362 0.34412284134106635 144 238 144 0.5
0.19894050028221638 0.06499403928287305 0.34410678462631006 144 238 144 0.5
0.19893933371075465 0.0649844713628777 0.34409065373801384 144 238 144 0.5
0.19893788982622682 0.0649748979709617 0.34407444665898557 144 238 144 0.5
0.19893616381670837 0.06496531820600925 0.34405816137203343 144 238 144 0.5
0.19893415087027472 0.06495573116690445 0.3440417958599653 144 238 144 0.5
0.19893184617500143 0.06494613595253146 0.3440253481055891 144 238 144 0.5
0.19892924491896385 0.06493653166177442 0.3440088160917129 144 238 144 0.5
0.1989263422902375 0.06492691739351748 0.34399219780114465 144 238 144 0.5
0.19892313347689788 0.06491729224664478 0.34397549121669224 144 238 144 0.5
0.1989196136724528 0.06490765532030657 0.34395869432271814 144 238 144 0.5
0.1989157809874775 0.06489800585655928 0.3439418059383058 144 238 144 0.5
0.1989116412524351 0.06488834347565374 0.34392482709159033 144 238 144 0.5
0.19890720156027258 0.06487866785968956 0.34390775917196753 144 238 144 0.5
0.1989024690039369 0.06486897869076623 0.343890603568833 144 238 144 0.5
0.1988974506763749 0.06485927565098332 0.3438733616715826 144 238 144 0.5
0.1988921536705337 0.06484955842244036 0.343856034869612 144 238 144 0.5
0.19888658507936013 0.06483982668723692 0.34383862455231706 144 238 144 0.5
0.19888075199580113 0.0648300801274725 0.3438211321090934 144 238 144 0.5
0.19887466151280367 0.06482031842524665 0.3438035589293369 144 238 144 0.5
0.1988683207233147 0.06481054126265895 0.3437859064024431 144 238 144 0.5
0.19886173672028115 0.06480074832180888 0.34376817591780795 144 238 144 0.5
0.19885491659664997 0.06479093928479601 0.3437503688648271 144 238 144 0.5
0.19884786744536817 0.0647811138337199 0.3437324866328963 144 238 144 0.5
0.19884059635938262 0.06477127165068007 0.34371453061141133 144 238 144 0.5
0.19883311043164023 0.06476141241777605 0.3436965021897679 144 238 144 0.5
0.19882541675508808 0.06475153581710744 0.3436784027573619 144 238 144 0.5
0.19881752242267292 0.0647416415307737 0.3436602337035888 144 238 144 0.5
0.19880943452734187 0.06473172924087442 0.3436419964178445 144 238 144 0.5
0.1988011601620418 0.06472179862950912 0.3436236922895248 144 238 144 0.5
0.1987927064197197 0.06471184937877734 0.3436053227080253 144 238 144 0.5
0.19878408039332243 0.06470188117077867 0.343586889062742 144 238 144 0.5
0.19877528917579698 0.06469189368761258 0.3435683927430703 144 238 144 0.5
0.19876633986009032 0.06468188661137865 0.34354983513840626 144 238 144 0.5
0.19875723953914942 0.06467185962417642 0.3435312176381455 144 238 144 0.5
0.19874799530592116 0.06466181240810544 0.3435125416316837 144 238 144 0.5
0.19873861425335249 0.06465174464526523 0.3434938085084167 144 238 144 0.5
0.19872910347439035 0.06464165601775532 0.3434750196577402 144 238 144 0.5
0.19871947006198176 0.06463154620767529 0.34345617646904997 144 238 144 0.5
0.19870972110907356 0.06462141489712465 0.3434372803317418 144 238 144 0.5
0.19869986370861278 0.06461126176820296 0.3434183326352113 144 238 144 0.5
0.1986899049535463 0.06460108650300975 0.3433993347688543 144 238 144 0.5
0.1986798519368211 0.06459088878364458 0.34338028812206667 144 238 144 0.5
0.19866971175138418 0.06458066829220696 0.3433611940842439 144 238 144 0.5
0.1986594914901824 0.06457042471079646 0.343342054044782 144 238 144 0.5
0.19864919824616267 0.06456015772151259 0.3433228693930765 144 238 144 0.5
0.19863883911227206 0.06454986700645492 0.34330364151852333 144 238 144 0.5
0.1986284211814574 0.06453955224772298 0.34328437181051796 144 238 144 0.5
0.19861795154666573 0.0645292131274163 0.34326506165845644 144 238 144 0.5
0.19860743730084396 0.06451884932763445 0.34324571245173435 144 238 144 0.5
0.19859688553693902 0.06450846053047696 0.3432263255797476 144 238 144 0.5
0.19858630334789784 0.06449804641804334 0.3432069024318916 144 238 144 0.5
0.19857569782666742 0.06448760667243317 0.34318744439756244 144 238 144 0.5
0.19856507606619467 0.06447714097574597 0.3431679528661558 144 238 144 0.5
0.1985544451594265 0.0644666490100813 0.3431484292270673 144 238 144 0.5
0.19854381219930992 0.06445613045753869 0.34312887486969273 144 238 144 0.5
0.19853318427879182 0.06444558500021767 0.3431092911834279 144 238 144 0.5
0.19852256849081917 0.0644350123202178 0.34308967955766845 144 238 144 0.5
0.19851197192833894 0.06442441209963862 0.34307004138181024 144 238 144 0.5
0.19850140168429803 0.06441378402057962 0.34305037804524896 144 238 144 0.5
0.19849086485164344 0.06440312776514044 0.34303069093738037 144 238 144 0.5
0.19848036852332207 0.06439244301542056 0.3430109814476002 144 238 144 0.5
0.1984699197922809 0.06438172945351953 0.3429912509653043 144 238 144 0.5
0.1984595257514668 0.06437098676153687 0.34297150087988826 144 238 144 0.5
0.19844919349382684 0.06436021462157214 0.34295173258074785 144 238 144 0.5
0.19843893011230784 0.0643494127157249 0.34293194745727895 144 238 144 0.5
0.1984287426998568 0.06433858072609466 0.3429121468988771 144 238 144 0.5
0.19841863834942067 0.06432771833478097 0.3428923322949382 144 238 144 0.5
0.1984086241539464 0.06431682522388338 0.34287250503485794 144 238 144 0.5
0.1983987072063809 0.06430590107550142 0.34285266650803214 144 238 144 0.5
0.19838889459967116 0.06429494557173465 0.34283281810385646 144 238 144 0.5
0.19837919342676408 0.0642839583946826 0.34281296121172666 144 238 144 0.5
0.19836961078060666 0.06427293922644481 0.3427930972210385 144 238 144 0.5
0.19836015375414576 0.0642618877491208 0.3427732275211878 144 238 144 0.5
0.1983508294403284 0.06425080364481014 0.3427533535015701 144 238 144 0.5
0.19834164493210152 0.06423968659561237 0.3427334765515815 144 238 144 0.5
0.19833260732241204 0.06422853628362703 0.3427135980606173 144 238 144 0.5
0.1983237237042069 0.06421735239095364 0.3426937194180736 144 238 144 0.5
0.19831500117043308 0.06420613459969177 0.34267384201334605 144 238 144 0.5
0.19830644681403747 0.06419488259194095 0.3426539672358302 144 238 144 0.5
0.19829806772796707 0.06418359604980071 0.3426340964749221 144 238 144 0.5
0.19828987100516884 0.06417227465537062 0.3426142311200174 144 238 144 0.5
0.19828186373858964 0.06416091809075017 0.34259437256051173 144 238 144 0.5
0.19827405302117648 0.06414952603803895 0.3425745221858009 144 238 144 0.5
0.19826644594587628 0.06413809817933648 0.3425546813852807 144 238 144 0.5
0.19825904960563603 0.06412663419674229 0.34253485154834684 144 238 144 0.5
0.1982518710934026 0.06411513377235596 0.3425150340643951 144 238 144 0.5
0.19824491750212295 0.064103596588277 0.3424952303228212 144 238 144 0.5
0.1982381959247441 0.06409202232660494 0.3424754417130208 144 238 144 0.5
0.19823171345421292 0.06408041066943936 0.3424556696243899 144 238 144 0.5
0.19822547718347638 0.06406876129887978 0.3424359154463239 144 238 144 0.5
0.19821949420548143 0.06405707389702574 0.3424161805682189 144 238 144 0.5
0.198213771613175 0.06404534814597677 0.34239646637947024 144 238 144 0.5
0.198208316499504 0.06403358372783244 0.34237677426947405 144 238 144 0.5
0.1982031359574155 0.06402178032469227 0.342357105627626 144 238 144 0.5
0.19819823707985632 0.06400993761865581 0.3423374618433216 144 238 144 0.5
0.19819362695977344 0.06399805529182259 0.3423178443059568 144 238 144 0.5
0.19818931269011386 0.06398613302629218 0.3422982544049274 144 238 144 0.5
0.19818530136382442 0.06397417050416408 0.342278693529629 144 238 144 0.5
0.1981816000738522 0.06396216740753785 0.3422591630694574 144 238 144 0.5
0.198178215913144 0.06395012341851304 0.34223966441380826 144 238 144 0.5
0.19817515597464683 0.06393803821918917 0.3422201989520775 144 238 144 0.5
0.1981724273513077 0.06392591149166581 0.3422007680736608 144 238 144 0.5
0.19817003713607342 0.06391374291804247 0.34218137316795383 144 238 144 0.5
0.1981679924218911 0.06390153218041872 0.34216201562435233 144 238 144 0.5
0.1981663003017075 0.0638892789608941 0.34214269683225224 144 238 144 0.5
0.1981649678684697 0.06387698294156811 0.3421234181810491 144 238 144 0.5
0.19816400221512462 0.06386464380454034 0.34210418106013873 144 238 144 0.5
0.19816341043461916 0.0638522612319103 0.3420849868589168 144 238 144 0.5
0.19816319961990034 0.06383983490577755 0.3420658369667793 144 238 144 0.5
0.198163376863915 0.06382736450824161 0.3420467327731217 144 238 144 0.5
0.1981639479687935 0.06381484991361702 0.34202767527822703 144 238 144 0.5
0.19816490134209905 0.06380229358643602 0.3420086602388382 144 238 144 0.5
0.19816621291966224 0.0637896998483914 0.34198967965213145 144 238 144 0.5
0.19816785836535328 0.06377707306167336 0.34197072543330154 144 238 144 0.5
0.19816981334304226 0.06376441758847233 0.34195178949754346 144 238 144 0.5
0.19817205351659936 0.06375173779097847 0.34193286376005155 144 238 144 0.5
0.19817455454989466 0.06373903803138212 0.3419139401360208 144 238 144 0.5
0.1981772921067983 0.06372632267187354 0.34189501054064575 144 238 144 0.5
0.1981802418511804 0.06371359607464305 0.3418760668891212 144 238 144 0.5
0.1981833794469112 0.06370086260188094 0.3418571010966419 144 238 144 0.5
0.19818668055786062 0.06368812661577747 0.34183810507840257 144 238 144 0.5
0.19819012084789903 0.06367539247852295 0.34181907074959794 144 238 144 0.5
0.19819367598089638 0.06366266455230768 0.34179999002542266 144 238 144 0.5
0.19819732162072284 0.06364994719932188 0.34178085482107157 144 238 144 0.5
0.1982010334312486 0.06363724478175592 0.3417616570517392 144 238 144 0.5
0.19820478707634376 0.06362456166180007 0.34174238863262063 144 238 144 0.5
0.19820855821987846 0.06361190220164456 0.3417230414789102 144 238 144 0.5
0.1982123225257228 0.06359927076347975 0.34170360750580286 144 238 144 0.5
0.198216055657747 0.06358667170949589 0.3416840786284933 144 238 144 0.5
0.19821973327982104 0.06357410940188327 0.34166444676217617 144 238 144 0.5
0.1982233310558151 0.0635615882028322 0.34164470382204615 144 238 144 0.5
0.19822682464959945 0.06354911247453297 0.34162484172329816 144 238 144 0.5
0.19823018972504408 0.06353668657917584 0.3416048523811269 144 238 144 0.5
0.19823340194601918 0.0635243148789511 0.34158472771072684 144 238 144 0.5
0.1982364369763948 0.06351200173604903 0.3415644596272929 144 238 144 0.5
0.1982392704800411 0.06349975151265995 0.3415440400460199 144 238 144 0.5
0.19824187812082839 0.06348756857097414 0.3415234608821024 144 238 144 0.5
0.19824423556262652 0.06347545727318185 0.34150271405073507 144 238 144 0.5
0.19824631846930582 0.06346342198147342 0.3414817914671128 144 238 144 0.5
0.19824810250473635 0.06345146705803913 0.34146068504643023 144 238 144 0.5
0.19824956333278826 0.06343959686506924 0.3414393867038822 144 238 144 0.5
0.19825067661733164 0.06342781576475405 0.34141788835466325 144 238 144 0.5
0.19825141802223661 0.06341612811928385 0.3413961819139681 144 238 144 0.5
0.1982517632113734 0.06340453829084892 0.3413742592969916 144 238 144 0.5
0.19825168784861205 0.06339305064163958 0.34135211241892854 144 238 144 0.5
0.19825116759782274 0.06338166953384608 0.34132973319497345 144 238 144 0.5
0.19825017812287557 0.06337039932965872 0.34130711354032117 144 238 144 0.5
0.1982486950876407 0.0633592443912678 0.34128424537016644 144 238 144 0.5
0.19824669415598828 0.0633482090808636 0.3412611205997038 144 238 144 0.5
0.19824415099178835 0.06333729776063639 0.3412377311441283 144 238 144 0.5
0.19824104125891112 0.0633265147927765 0.34121406891863443 144 238 144 0.5
0.19823734062122667 0.06331586453947417 0.34119012583841696 144 238 144 0.5
0.19823302474260523 0.06330535136291972 0.3411658938186705 144 238 144 0.5
0.1982280692869168 0.06329497962530342 0.34114136477459 144 238 144 0.5
0.1982224499180316 0.06328475368881556 0.3411165306213701 144 238 144 0.5
0.19821614229981974 0.06327467791564646 0.3410913832742055 144 238 144 0.5
0.19820912209615135 0.06326475666798637 0.34106591464829084 144 238 144 0.5
0.19820136497089652 0.06325499430802557 0.34104011665882095 144 238 144 0.5
0.19819284658792546 0.06324539519795438 0.3410139812209906 144 238 144 0.5
0.19818354261110824 0.06323596369996307 0.3409875002499944 144 238 144 0.5
0.198173428704315 0.06322670417624195 0.3409606656610271 144 238 144 0.5
0.19816248053141594 0.06321762098898129 0.34093346936928354 144 238 144 0.5
0.1981506737562811 0.06320871850037137 0.3409059032899583 144 238 144 0.5
0.1981379840427806 0.06320000107260247 0.34087795933824605 144 238 144 0.5
0.19812438705478463 0.06319147306786493 0.3408496294293417 144 238 144 0.5
0.19810985845616336 0.06318313884834897 0.3408209054784399 144 238 144 0.5
0.19809437391078685 0.06317500277624494 0.34079177940073535 144 238 144 0.5
0.1980779090825253 0.0631670692137431 0.3407622431114229 144 238 144 0.5
0.1980604396352487 0.06315934252303373 0.34073228852569704 144 238 144 0.5
0.19804194123282726 0.06315182706630712 0.34070190755875257 144 238 144 0.5
0.19802238953913118 0.06314452720575356 0.34067109212578434 144 238 144 0.5
0.1980017602180305 0.06313744730356335 0.340639834141987 144 238 144 0.5
0.1979800289333954 0.06313059172192677 0.34060812552255526 144 238 144 0.5
0.19795717134909607 0.0631239648230341 0.34057595818268394 144 238 144 0.5
0.19793316312900247 0.06311757096907565 0.34054332403756754 144 238 144 0.5
0.19790797993698486 0.06311141452224167 0.3405102150024009 144 238 144 0.5
0.19788159743691333 0.06310549984472248 0.3404766229923789 144 238 144 0.5
0.19785399129265807 0.06309983129870837 0.3404425399226961 144 238 144 0.5
0.19782513716808908 0.06309441324638959 0.3404079577085472 144 238 144 0.5
0.19779501072707664 0.06308925004995648 0.34037286826512697 144 238 144 0.5
0.19776358763349078 0.0630843460715993 0.34033726350763016 144 238 144 0.5
0.19773084355120166 0.06307970567350833 0.3403011353512515 144 238 144 0.5
0.19769675414407945 0.06307533321787388 0.3402644757111857 144 238 144 0.5
0.19766129507599423 0.06307123306688622 0.3402272765026274 144 238 144 0.5
0.19762444201081614 0.06306740958273564 0.34018952964077154 144 238 144 0.5
0.19758617061241546 0.06306386712761246 0.3401512270408127 144 238 144 0.5
0.19754645654466202 0.0630606100637069 0.3401123606179454 144 238 144 0.5
0.19750527547142616 0.06305764275320931 0.3400729222873648 144 238 144 0.5
0.19746260305657792 0.06305496955830996 0.3400329039642652 144 238 144 0.5
0.19741841496398757 0.06305259484119913 0.3399922975638417 144 238 144 0.5
0.19737268685752513 0.06305052296406712 0.33995109500128873 144 238 144 0.5
0.19732539440106067 0.0630487582891042 0.3399092881918011 144 238 144 0.5
0.19727651325846446 0.06304730517850067 0.3398668690505737 144 238 144 0.5
0.19722601909360654 0.06304616799444682 0.33982382949280093 144 238 144 0.5
0.1971738875703571 0.06304535109913292 0.3397801614336779 144 238 144 0.5
0.19712009435258618 0.06304485885474928 0.33973585678839896 144 238 144 0.5
0.19706461510416406 0.06304469562348619 0.33969090747215913 144 238 144 0.5
0.19700742548896075 0.06304486576753393 0.3396453054001529 144 238 144 0.5
0.19694850117084642 0.06304537364908278 0.3395990424875752 144 238 144 0.5
0.19688781781369122 0.06304622363032304 0.3395521106496207 144 238 144 0.5
0.1968253510813652 0.06304742007344498 0.33950450180148395 144 238 144 0.5
0.19676107663773856 0.06304896734063889 0.33945620785835984 144 238 144 0.5
0.19669497014668147 0.06305086979409509 0.3394072207354431 144 238 144 0.5
0.1966270072720641 0.06305313179600383 0.33935753234792854 144 238 144 0.5
0.19655716367775636 0.06305575770855541 0.3393071346110106 144 238 144 0.5
0.19648541502762856 0.06305875189394014 0.33925601943988415 144 238 144 0.5
0.19641173698555078 0.06306211871434829 0.339204178749744 144 238 144 0.5
0.19633610521539313 0.06306586253197013 0.3391516044557848 144 238 144 0.5
0.1962584953810258 0.063069987708996 0.3390982884732013 144 238 144 0.5
0.1961788831463189 0.06307449860761613 0.33904422271718815 144 238 144 0.5
0.1960972441939251 0.06307939958589474 0.33898939910908304 144 238 144 0.5
0.19601357166217612 0.06308469116728949 0.33893381527916117 144 238 144 0.5
0.19592790848169123 0.06309036293705098 0.3388774851424303 144 238 144 0.5
0.19584030640321826 0.0630964025428528 0.33882042549855046 144 238 144 0.5
0.19575081717750498 0.06310279763236855 0.3387626531471816 144 238 144 0.5
0.19565949255529924 0.0631095358532718 0.3387041848879837 144 238 144 0.5
0.19556638428734885 0.06311660485323613 0.3386450375206168 144 238 144 0.5
0.19547154412440157 0.06312399227993513 0.3385852278447409 144 238 144 0.5
0.19537502381720523 0.0631316857810424 0.33852477266001585 144 238 144 0.5
0.19527687511650774 0.0631396730042315 0.3384636887661018 144 238 144 0.5
0.19517714977305672 0.06314794159717602 0.3384019929626586 144 238 144 0.5
0.19507589953760032 0.06315647920754955 0.3383397020493465 144 238 144 0.5
0.19497317616088597 0.06316527348302567 0.33827683282582516 144 238 144 0.5
0.19486903139366163 0.063174312071278 0.3382134020917547 144 238 144 0.5
0.19476351698667513 0.06318358261998007 0.3381494266467951 144 238 144 0.5
0.19465668469067426 0.06319307277680551 0.33808492329060646 144 238 144 0.5
0.19454858625640686 0.06320277018942787 0.33801990882284866 144 238 144 0.5
0.19443927343462064 0.06321266250552074 0.3379544000431816 144 238 144 0.5
0.1943287979760636 0.06322273737275774 0.3378884137512655 144 238 144 0.5
0.19421721163148342 0.06323298243881242 0.3378219667467601 144 238 144 0.5
