ply
format ascii 1.0
element vertex 608
property float x
property float y
property float z
property uchar red
property uchar green
property uchar blue
property float size
end_header
-0.04282917278313011 0.016229896711049113 0.698767261310972 144 238 144 0.5
-0.04275347456865509 0.016203450683615606 0.698816175834434 144 238 144 0.5
-0.04267714327303764 0.016176792673373814 0.6988653966401123 144 238 144 0.5
-0.042600173906328594 0.01614991962526863 0.6989149120495322 144 238 144 0.5
-0.042522561478578795 0.016122828484244976 0.6989647103842199 144 238 144 0.5
-0.042444300999839125 0.01609551619524777 0.6990147799657015 144 238 144 0.5
-0.0423653874801603 0.016067979703221887 0.6990651091155027 144 238 144 0.5
-0.04228581592959322 0.016040215953112256 0.6991156861551495 144 238 144 0.5
-0.04220558135818873 0.01601222188986378 0.6991664994061682 144 238 144 0.5
-0.04212467877599763 0.015983994458421375 0.6992175371900843 144 238 144 0.5
-0.04204310319307086 0.015955530603729964 0.699268787828424 144 238 144 0.5
-0.041960849619459104 0.015926827270734426 0.6993202396427131 144 238 144 0.5
-0.04187791306521326 0.01589788140437968 0.6993718809544778 144 238 144 0.5
-0.041794288540384174 0.015868689949610635 0.6994237000852438 144 238 144 0.5
-0.04170997105502268 0.015839249851372205 0.699475685356537 144 238 144 0.5
-0.041624955619179595 0.01580955805460929 0.6995278250898838 144 238 144 0.5
-0.041539237242905834 0.015779611504266832 0.6995801076068098 144 238 144 0.5
-0.0414528109362521 0.01574940714528969 0.6996325212288409 144 238 144 0.5
-0.04136567170926929 0.015718941922622794 0.6996850542775032 144 238 144 0.5
-0.04127781457200825 0.015688212781211054 0.6997376950743226 144 238 144 0.5
-0.0411892345345198 0.01565721666599938 0.6997904319408251 144 238 144 0.5
-0.04109992660685483 0.0156259505219327 0.6998432531985366 144 238 144 0.5
-0.041009885799064075 0.015594411293955883 0.6998961471689831 144 238 144 0.5
-0.04091910712119842 0.015562595927013858 0.6999491021736904 144 238 144 0.5
-0.040827585583308706 0.015530501366051533 0.7000021065341849 144 238 144 0.5
-0.04073531619544575 0.015498124556013817 0.700055148571992 144 238 144 0.5
-0.04064229396766046 0.01546546244184564 0.700108216608638 144 238 144 0.5
-0.04054851391000355 0.015432511968491868 0.7001612989656486 144 238 144 0.5
-0.04045397103252592 0.015399270080897429 0.70021438396455 144 238 144 0.5
-0.04035866034527839 0.015365733724007237 0.7002674599268681 144 238 144 0.5
-0.040262576858311784 0.015331899842766195 0.7003205151741286 144 238 144 0.5
-0.04016571558167706 0.015297765382119244 0.700373538027858 144 238 144 0.5
-0.04006807152542485 0.015263327287011236 0.7004265168095816 144 238 144 0.5
-0.0399696396996061 0.015228582502387109 0.7004794398408258 144 238 144 0.5
-0.03987041511427163 0.015193527973191769 0.7005322954431165 144 238 144 0.5
-0.03977039277947228 0.015158160644370127 0.7005850719379795 144 238 144 0.5
-0.03966956770525888 0.015122477460867093 0.7006377576469409 144 238 144 0.5
-0.03956793490168233 0.015086475367627597 0.7006903408915263 144 238 144 0.5
-0.03946548937879332 0.015050151309596499 0.7007428099932621 144 238 144 0.5
-0.03936222614664279 0.015013502231718736 0.700795153273674 144 238 144 0.5
-0.03925814021528153 0.01497652507893921 0.7008473590542883 144 238 144 0.5
-0.0391532265947604 0.014939216796202835 0.7008994156566304 144 238 144 0.5
-0.039047480295130305 0.014901574328454544 0.7009513114022266 144 238 144 0.5
-0.03894089632644194 0.014863594620639197 0.7010030346126029 144 238 144 0.5
-0.038833469698746195 0.014825274617701726 0.7010545736092851 144 238 144 0.5
-0.03872519542209391 0.014786611264587041 0.7011059167137994 144 238 144 0.5
-0.03861606850653593 0.014747601506240045 0.7011570522476713 144 238 144 0.5
-0.03850608396212315 0.014708242287605687 0.7012079685324271 144 238 144 0.5
-0.038395236798906274 0.01466853055362881 0.7012586538895926 144 238 144 0.5
-0.03828352202693619 0.014628463249254353 0.701309096640694 144 238 144 0.5
-0.03817093465626375 0.014588037319427222 0.7013592851072569 144 238 144 0.5
-0.03805746969693978 0.014547249709092335 0.7014092076108076 144 238 144 0.5
-0.0379431221590152 0.014506097363194621 0.7014588524728718 144 238 144 0.5
-0.03782788705254067 0.014464577226678934 0.7015082080149754 144 238 144 0.5
-0.03771175938756713 0.01442268624449021 0.7015572625586445 144 238 144 0.5
-0.0375947341741454 0.014380421361573359 0.7016060044254052 144 238 144 0.5
-0.0374768064223263 0.014337779522873293 0.7016544219367833 144 238 144 0.5
-0.03735797114216069 0.014294757673334916 0.7017025034143047 144 238 144 0.5
-0.03723822422683654 0.014251353143570714 0.7017502375126266 144 238 144 0.5
-0.03711757679149614 0.014207569911648045 0.7017976186283353 144 238 144 0.5
-0.03699605278912833 0.014163417561944957 0.7018446460006277 144 238 144 0.5
-0.03687367657469588 0.014118905854382255 0.7018913190203303 144 238 144 0.5
-0.03675047250316167 0.014074044548880761 0.70193763707827 144 238 144 0.5
-0.036626464929488574 0.014028843405361322 0.7019835995652738 144 238 144 0.5
-0.03650167820863925 0.013983312183744686 0.7020292058721683 144 238 144 0.5
-0.0363761366955766 0.013937460643951703 0.7020744553897809 144 238 144 0.5
-0.03624986474526346 0.01389129854590319 0.7021193475089379 144 238 144 0.5
-0.03612288671266264 0.013844835649519955 0.7021638816204664 144 238 144 0.5
-0.035995226952737054 0.013798081714722858 0.7022080571151932 144 238 144 0.5
-0.03586690982044934 0.01375104650143264 0.7022518733839452 144 238 144 0.5
-0.03573795967076242 0.01370373976957015 0.7022953298175492 144 238 144 0.5
-0.0356084008586391 0.013656171279056205 0.702338425806832 144 238 144 0.5
-0.0354782577390422 0.013608350789811624 0.7023811607426205 144 238 144 0.5
-0.035347554666934664 0.01356028806175725 0.7024235340157416 144 238 144 0.5
-0.035216315997279105 0.013511992854813833 0.7024655450170223 144 238 144 0.5
-0.03508456608503843 0.013463474928902224 0.702507193137289 144 238 144 0.5
-0.034952329285175464 0.013414744043943234 0.702548477767369 144 238 144 0.5
-0.03481962995265304 0.013365809959857684 0.702589398298089 144 238 144 0.5
-0.034686492442433985 0.01331668243656639 0.7026299541202757 144 238 144 0.5
-0.03455294110948119 0.013267371233990195 0.7026701446247562 144 238 144 0.5
-0.03441900030875731 0.013217886112049848 0.7027099692023573 144 238 144 0.5
-0.034284694395225246 0.013168236830666202 0.7027494272439055 144 238 144 0.5
-0.03415004772384783 0.013118433149760068 0.7027885181402282 144 238 144 0.5
-0.03401508464958787 0.013068484829252266 0.7028272412821518 144 238 144 0.5
-0.033879829527408305 0.013018401629063647 0.7028655960605037 144 238 144 0.5
-0.033744306712271736 0.01296819330911495 0.70290358186611 144 238 144 0.5
-0.03360854055914111 0.01291786962932703 0.7029411980897983 144 238 144 0.5
-0.03347255542297922 0.012867440349620701 0.702978444122395 144 238 144 0.5
-0.03333637565874891 0.012816915229916778 0.7030153193547269 144 238 144 0.5
-0.033200025621413096 0.012766304030136115 0.7030518231776212 144 238 144 0.5
-0.03306352966593439 0.012715616510199455 0.7030879549819045 144 238 144 0.5
-0.03292691214727573 0.012664862430027644 0.7031237141584036 144 238 144 0.5
-0.03279019742039991 0.012614051549541504 0.7031591000979456 144 238 144 0.5
-0.03265340984026978 0.012563193628661849 0.7031941121913572 144 238 144 0.5
-0.03251657376184825 0.012512298427309528 0.7032287498294651 144 238 144 0.5
-0.03237971354009794 0.012461375705405288 0.7032630124030967 144 238 144 0.5
-0.032242853529981776 0.012410435222869975 0.7032968993030783 144 238 144 0.5
-0.03210601808646256 0.012359486739624406 0.703330409920237 144 238 144 0.5
-0.031969231564503146 0.012308540015589401 0.7033635436453995 144 238 144 0.5
-0.03183251831906633 0.012257604810685776 0.7033962998693928 144 238 144 0.5
-0.031695902705115055 0.012206690884834375 0.7034286779830436 144 238 144 0.5
-0.031559409077611913 0.012155807997955945 0.703460677377179 144 238 144 0.5
-0.03142306179151985 0.012104965909971337 0.7034922974426255 144 238 144 0.5
-0.03128688520180169 0.012054174380801367 0.7035235375702104 144 238 144 0.5
-0.031150903663420233 0.012003443170366853 0.7035543971507602 144 238 144 0.5
-0.031015141531338403 0.011952782038588641 0.7035848755751017 144 238 144 0.5
-0.03087962316051884 0.011902200745387477 0.7036149722340621 144 238 144 0.5
-0.030744372905924452 0.011851709050684212 0.7036446865184679 144 238 144 0.5
-0.030609415122518066 0.011801316714399664 0.7036740178191463 144 238 144 0.5
-0.030474774165262505 0.01175103349645465 0.7037029655269239 144 238 144 0.5
-0.030340474389120676 0.011700869156770013 0.7037315290326277 144 238 144 0.5
-0.03020654014905522 0.011650833455266503 0.7037597077270844 144 238 144 0.5
-0.03007299580002904 0.01160093615186497 0.7037875010011209 144 238 144 0.5
-0.029939865697004974 0.011551187006486226 0.703814908245564 144 238 144 0.5
-0.029807174194945836 0.011501595779051091 0.7038419288512408 144 238 144 0.5
-0.029674945648814538 0.011452172229480417 0.703868562208978 144 238 144 0.5
-0.029543204413573717 0.011402926117694943 0.7038948077096022 144 238 144 0.5
-0.029411974844186287 0.011353867203615524 0.7039206647439408 144 238 144 0.5
-0.029281281295615073 0.011305005247162972 0.70394613270282 144 238 144 0.5
-0.0291511481228229 0.01125635000825811 0.7039712109770674 144 238 144 0.5
-0.029021599680772572 0.011207911246821745 0.7039958989575091 144 238 144 0.5
-0.02889266032442702 0.01115969872277473 0.7040201960349726 144 238 144 0.5
-0.028764354408748874 0.011111722196037808 0.7040441016002842 144 238 144 0.5
-0.028636706288701047 0.011063991426531836 0.7040676150442711 144 238 144 0.5
-0.028509740319246357 0.011016516174177624 0.70409073575776 144 238 144 0.5
-0.028383480855347636 0.01096930619889599 0.7041134631315779 144 238 144 0.5
-0.028257952251967793 0.010922371260607782 0.7041357965565517 144 238 144 0.5
-0.028133178864069464 0.010875721119233748 0.704157735423508 144 238 144 0.5
-0.028009185046615554 0.010829365534694735 0.7041792791232736 144 238 144 0.5
-0.0278859951545689 0.010783314266911561 0.7042004270466756 144 238 144 0.5
-0.027763633542892317 0.010737577075805046 0.7042211785845409 144 238 144 0.5
-0.02764212456654871 0.010692163721296027 0.7042415331276961 144 238 144 0.5
-0.027521492580500732 0.010647083963305262 0.7042614900669683 144 238 144 0.5
-0.027401761939711285 0.010602347561753598 0.7042810487931843 144 238 144 0.5
-0.0272829569991432 0.01055796427656185 0.7043002086971707 144 238 144 0.5
-0.027165102113759283 0.010513943867650833 0.7043189691697547 144 238 144 0.5
-0.027048221638522454 0.010470296094941392 0.7043373296017628 144 238 144 0.5
-0.026932339928395357 0.010427030718354283 0.7043552893840221 144 238 144 0.5
-0.026817481338340905 0.010384157497810353 0.7043728479073595 144 238 144 0.5
-0.02670367022332192 0.010341686193230414 0.7043900045626017 144 238 144 0.5
-0.026590930938301206 0.010299626564535282 0.7044067587405756 144 238 144 0.5
-0.026479287838241605 0.010257988371645774 0.7044231098321081 144 238 144 0.5
-0.026368765278106013 0.010216781374482736 0.7044390572280261 144 238 144 0.5
-0.026259387612857087 0.01017601533296692 0.7044546003191562 144 238 144 0.5
-0.02615117919745773 0.010135700007019178 0.7044697384963255 144 238 144 0.5
-0.026044164386870766 0.010095845156560318 0.7044844711503607 144 238 144 0.5
-0.025938367536059014 0.010056460541511159 0.7044987976720888 144 238 144 0.5
-0.02583381299998537 0.010017555921792543 0.7045127174523365 144 238 144 0.5
-0.025730525133612507 0.009979141057325232 0.7045262298819307 144 238 144 0.5
-0.025628528291903326 0.009941225708030067 0.7045393343516984 144 238 144 0.5
-0.025527846829820632 0.009903819633827863 0.7045520302524662 144 238 144 0.5
-0.025428505102327262 0.009866932594639439 0.7045643169750612 144 238 144 0.5
-0.025330527464386108 0.009830574350385634 0.7045761939103101 144 238 144 0.5
-0.025233938270959842 0.00979475466098721 0.7045876604490398 144 238 144 0.5
-0.025138761877011355 0.00975948328636501 0.704598715982077 144 238 144 0.5
-0.02504502263750348 0.009724769986439851 0.704609359900249 144 238 144 0.5
-0.02495274490739903 0.009690624521132543 0.704619591594382 144 238 144 0.5
-0.024861953041660893 0.009657056650363932 0.7046294104553035 144 238 144 0.5
-0.02477267138787858 0.009624076131681734 0.7046388158746483 144 238 144 0.5
-0.02468490992238444 0.009591688097267919 0.7046478088193195 144 238 144 0.5
-0.02459863425337583 0.009559883399492288 0.70465639511952 144 238 144 0.5
-0.02451380145366791 0.009528650143625748 0.7046645815410367 144 238 144 0.5
-0.024430368596075856 0.00949797643493923 0.704672374849656 144 238 144 0.5
-0.02434829275341488 0.009467850378703662 0.704679781811164 144 238 144 0.5
-0.024267530998500045 0.009438260080189916 0.7046868091913479 144 238 144 0.5
-0.024188040404146578 0.009409193644668936 0.704693463755994 144 238 144 0.5
-0.024109778043169643 0.009380639177411635 0.704699752270889 144 238 144 0.5
-0.02403270098838441 0.009352584783688925 0.7047056815018192 144 238 144 0.5
-0.023956766312606098 0.00932501856877175 0.7047112582145714 144 238 144 0.5
-0.023881931088649774 0.009297928637930978 0.7047164891749323 144 238 144 0.5
-0.023808152389330654 0.00927130309643755 0.7047213811486882 144 238 144 0.5
-0.02373538728746391 0.009245130049562383 0.7047259409016261 144 238 144 0.5
-0.023663592855864706 0.009219397602576389 0.704730175199532 144 238 144 0.5
-0.023592726167348258 0.009194093860750504 0.7047340908081929 144 238 144 0.5
-0.02352274429472965 0.00916920692935561 0.7047376944933953 144 238 144 0.5
-0.023453604310824078 0.009144724913662637 0.7047409930209256 144 238 144 0.5
-0.023385263288446735 0.009120635918942506 0.7047439931565708 144 238 144 0.5
-0.02331767830041277 0.00909692805046613 0.7047467016661169 144 238 144 0.5
-0.023250806419537404 0.009073589413504442 0.7047491253153508 144 238 144 0.5
-0.02318460471863571 0.009050608113328322 0.7047512708700593 144 238 144 0.5
-0.0231190302705229 0.009027972255208709 0.7047531450960287 144 238 144 0.5
-0.023054040148014154 0.009005669944416515 0.7047547547590455 144 238 144 0.5
-0.02298959142392463 0.008983689286222656 0.7047561066248965 144 238 144 0.5
-0.022925641171069502 0.00896201838589805 0.7047572074593683 144 238 144 0.5
-0.022862146462263977 0.008940645348713626 0.7047580640282471 144 238 144 0.5
-0.022799064370323138 0.008919558279940272 0.70475868309732 144 238 144 0.5
-0.022736351968062198 0.008898745284848917 0.7047590714323732 144 238 144 0.5
-0.022673966328296328 0.008878194468710479 0.7047592357991934 144 238 144 0.5
-0.022611864523840685 0.008857893936795872 0.7047591829635672 144 238 144 0.5
-0.022550003627510494 0.00883783179437603 0.7047589196912812 144 238 144 0.5
-0.022488340712120823 0.008817996146721834 0.7047584527481221 144 238 144 0.5
-0.022426832850486897 0.00879837509910422 0.7047577888998763 144 238 144 0.5
-0.022365437115423874 0.008778956756794104 0.70475693491233 144 238 144 0.5
-0.02230411057974693 0.0087597292250624 0.7047558975512708 144 238 144 0.5
-0.02224281031627127 0.008740680609180037 0.7047546835824843 144 238 144 0.5
-0.022181493397811985 0.00872179901441791 0.7047532997717576 144 238 144 0.5
-0.02212011689718428 0.00870307254604694 0.7047517528848771 144 238 144 0.5
-0.022058637887203324 0.008684489309338047 0.7047500496876296 144 238 144 0.5
-0.02199701344068428 0.008666037409562146 0.7047481969458012 144 238 144 0.5
-0.021935200630442363 0.008647704951990168 0.704746201425179 144 238 144 0.5
-0.02187315652929266 0.008629480041893001 0.7047440698915491 144 238 144 0.5
-0.02181083821005038 0.008611350784541578 0.7047418091106985 144 238 144 0.5
-0.021748202745530687 0.00859330528520681 0.7047394258484139 144 238 144 0.5
-0.021685207208548753 0.008575331649159617 0.7047369268704814 144 238 144 0.5
-0.02162180867191974 0.008557417981670912 0.7047343189426877 144 238 144 0.5
-0.021557964208458874 0.008539552388011625 0.7047316088308195 144 238 144 0.5
-0.021493630890981226 0.008521722973452647 0.7047288033006633 144 238 144 0.5
-0.021428765792302004 0.008503917843264907 0.7047259091180059 144 238 144 0.5
-0.021363325985236385 0.008486125102719322 0.7047229330486335 144 238 144 0.5
-0.02129726854259953 0.008468332857086805 0.7047198818583331 144 238 144 0.5
-0.021230550537206655 0.008450529211638287 0.704716762312891 144 238 144 0.5
-0.02116312904187284 0.008432702271644657 0.7047135811780937 144 238 144 0.5
-0.021094961129413302 0.008414840142376846 0.7047103452197282 144 238 144 0.5
-0.0210260038726432 0.00839693092910577 0.7047070612035806 144 238 144 0.5
-0.020956214344377708 0.008378962737102343 0.7047037358954378 144 238 144 0.5
-0.020885549617432043 0.008360923671637497 0.7047003760610864 144 238 144 0.5
-0.02081396676462127 0.008342801837982118 0.7046969884663125 144 238 144 0.5
-0.020741422858760617 0.008324585341407138 0.7046935798769033 144 238 144 0.5
-0.02066787497266524 0.00830626228718347 0.7046901570586451 144 238 144 0.5
-0.02059328017915031 0.008287820780582038 0.7046867267773245 144 238 144 0.5
-0.020517595551031057 0.008269248926873762 0.704683295798728 144 238 144 0.5
-0.020440778161122542 0.008250534831329537 0.7046798708886424 144 238 144 0.5
-0.02036278508223997 0.00823166659922029 0.704676458812854 144 238 144 0.5
-0.02028357338719853 0.008212632335816938 0.7046730663371497 144 238 144 0.5
-0.020203100148813366 0.008193420146390394 0.7046697002273156 144 238 144 0.5
-0.02012132243989968 0.00817401813621158 0.7046663672491388 144 238 144 0.5
-0.02003819733327267 0.008154414410551423 0.7046630741684056 144 238 144 0.5
-0.019953681901747396 0.00813459707468081 0.7046598277509025 144 238 144 0.5
-0.019867733218139096 0.008114554233870672 0.7046566347624166 144 238 144 0.5
-0.019780308355262916 0.008094273993391927 0.7046535019687339 144 238 144 0.5
-0.019691364385934045 0.008073744458515488 0.7046504361356412 144 238 144 0.5
-0.019600858382967705 0.008052953734512288 0.7046474440289251 144 238 144 0.5
-0.01950874741917893 0.008031889926653211 0.7046445324143719 144 238 144 0.5
-0.019414988567382968 0.008010541140209191 0.7046417080577688 144 238 144 0.5
-0.01931953890039498 0.007988895480451143 0.7046389777249019 144 238 144 0.5
-0.01922235549103013 0.007966941052649983 0.7046363481815577 144 238 144 0.5
-0.019123395412103658 0.00794466596207664 0.7046338261935232 144 238 144 0.5
-0.0190226157364306 0.007922058314002002 0.7046314185265847 144 238 144 0.5
-0.018919973536826184 0.007899106213697 0.7046291319465287 144 238 144 0.5
-0.018815425886105585 0.00787579776643255 0.704626973219142 144 238 144 0.5
-0.018708929857083965 0.007852121077479568 0.7046249491102111 144 238 144 0.5
-0.018600442522576578 0.007828064252108986 0.7046230663855225 144 238 144 0.5
-0.018489920955398434 0.00780361539559169 0.7046213318108631 144 238 144 0.5
-0.018377322228364776 0.007778762613198608 0.704619752152019 144 238 144 0.5
-0.01826260341429077 0.007753494010200659 0.7046183341747773 144 238 144 0.5
-0.01814572158599159 0.007727797691868758 0.704617084644924 144 238 144 0.5
-0.018026633816282403 0.007701661763473824 0.7046160103282461 144 238 144 0.5
-0.01790529717797846 0.007675074330286786 0.7046151179905299 144 238 144 0.5
-0.017781668743894762 0.0076480234975785264 0.7046144143975622 144 238 144 0.5
-0.01765570558684656 0.00762049737061998 0.7046139063151298 144 238 144 0.5
-0.017527364779649026 0.007592484054682063 0.7046136005090188 144 238 144 0.5
-0.01739660339511732 0.00756397165503569 0.704613503745016 144 238 144 0.5
-0.01726337850606672 0.007534948276951799 0.7046136227889078 144 238 144 0.5
-0.01712764718531219 0.007505402025701264 0.7046139644064813 144 238 144 0.5
-0.016989366505668995 0.007475321006555022 0.7046145353635225 144 238 144 0.5
-0.016848493539952308 0.007444693324783988 0.7046153424258182 144 238 144 0.5
-0.016704985360977292 0.00741350708565908 0.704616392359155 144 238 144 0.5
-0.016558799041559227 0.007381750394451236 0.7046176919293193 144 238 144 0.5
-0.01640989165451307 0.007349411356431327 0.7046192479020981 144 238 144 0.5
-0.01625822420834723 0.00731647899373005 0.7046210665701393 144 238 144 0.5
-0.016103814619914357 0.00728295558585586 0.7046231473847235 144 238 144 0.5
-0.015946723622507198 0.00724885338684254 0.7046254846498549 144 238 144 0.5
-0.015787012995016406 0.007214184894306543 0.704628072543838 144 238 144 0.5
-0.0156247445163323 0.007178962605864241 0.704630905244978 144 238 144 0.5
-0.015459979965345516 0.007143199019132086 0.7046339769315797 144 238 144 0.5
-0.015292781120946605 0.007106906631726501 0.7046372817819481 144 238 144 0.5
-0.0151232097620261 0.007070097941263913 0.704640813974388 144 238 144 0.5
-0.014951327667474536 0.007032785445360743 0.7046445676872045 144 238 144 0.5
-0.014777196616182575 0.006994981641633445 0.7046485370987025 144 238 144 0.5
-0.014600878387040507 0.00695669902769839 0.7046527163871866 144 238 144 0.5
-0.014422434758938998 0.00691795010117203 0.7046570997309621 144 238 144 0.5
-0.014241927510768576 0.006878747359670787 0.7046616813083337 144 238 144 0.5
-0.01405941842141979 0.00683910330081109 0.7046664552976066 144 238 144 0.5
-0.0138749692697833 0.006799030422209389 0.7046714158770856 144 238 144 0.5
-0.013688641834749386 0.006758541221482055 0.7046765572250754 144 238 144 0.5
-0.01350049789520871 0.006717648196245539 0.704681873519881 144 238 144 0.5
-0.013310599230051815 0.006676363844116262 0.7046873589398077 144 238 144 0.5
-0.013119007618169235 0.006634700662710655 0.7046930076631599 144 238 144 0.5
-0.012925784838451653 0.00659267114964517 0.7046988138682428 144 238 144 0.5
-0.01273099266978932 0.006550287802536174 0.7047047717333613 144 238 144 0.5
-0.012534692891072917 0.006507563119000118 0.7047108754368202 144 238 144 0.5
-0.012336947281192983 0.006464509596653429 0.7047171191569247 144 238 144 0.5
-0.012137817619040049 0.00642113973311253 0.7047234970719793 144 238 144 0.5
-0.0119373656835048 0.006377466025993879 0.7047300033602893 144 238 144 0.5
-0.011735653253477488 0.006333500972913839 0.7047366322001596 144 238 144 0.5
-0.011532742107848793 0.006289257071488864 0.7047433777698948 144 238 144 0.5
-0.011328694025509253 0.006244746819335379 0.7047502342478001 144 238 144 0.5
-0.011123570785349401 0.006199982714069809 0.7047571958121804 144 238 144 0.5
-0.010917434166259777 0.006154977253308577 0.7047642566413405 144 238 144 0.5
-0.010710345947131068 0.006109742934668144 0.7047714109135853 144 238 144 0.5
-0.010502367906853516 0.006064292255764867 0.7047786528072201 144 238 144 0.5
-0.010293561824317803 0.0060186377142152055 0.7047859765005493 144 238 144 0.5
-0.010083989478414468 0.005972791807635581 0.7047933761718781 144 238 144 0.5
-0.009873712648034048 0.005926767033642421 0.7048008459995114 144 238 144 0.5
-0.009662793112067235 0.005880575889852182 0.7048083801617543 144 238 144 0.5
-0.009451292649404256 0.005834230873881222 0.7048159728369111 144 238 144 0.5
-0.009239273038935809 0.005787744483346002 0.7048236182032874 144 238 144 0.5
-0.009026796059552426 0.005741129215862943 0.7048313104391879 144 238 144 0.5
-0.008813923490144648 0.005694397569048472 0.7048390437229176 144 238 144 0.5
-0.008600717109603159 0.005647562040519046 0.7048468122327811 144 238 144 0.5
-0.008387238696818195 0.005600635127891023 0.7048546101470836 144 238 144 0.5
-0.00817355003068045 0.005553629328780862 0.70486243164413 144 238 144 0.5
-0.007959712890080455 0.005506557140804986 0.7048702709022251 144 238 144 0.5
-0.007745789053908748 0.005459431061579823 0.704878122099674 144 238 144 0.5
-0.007531840301056021 0.005412263588721827 0.7048859794147815 144 238 144 0.5
-0.007317928410412508 0.0053650672198473585 0.7048938370258525 144 238 144 0.5
-0.007104115160868893 0.005317854452572875 0.7049016891111918 144 238 144 0.5
-0.006890462331315721 0.005270637784514805 0.7049095298491048 144 238 144 0.5
-0.006677031700643525 0.005223429713289566 0.7049173534178961 144 238 144 0.5
-0.006463885047742844 0.005176242736513588 0.7049251539958705 144 238 144 0.5
-0.0062510841515043625 0.005129089351803327 0.704932925761333 144 238 144 0.5
-0.0060386907908183225 0.0050819820567751415 0.7049406628925886 144 238 144 0.5
-0.00582676674457541 0.005034933349045489 0.7049483595679423 144 238 144 0.5
-0.005615373791666155 0.004987955726230795 0.7049560099656988 144 238 144 0.5
-0.005404573710981104 0.0049410616859474855 0.7049636082641634 144 238 144 0.5
-0.005194428281410943 0.004894263725812016 0.7049711486416405 144 238 144 0.5
-0.004984999281845907 0.004847574343440747 0.7049786252764355 144 238 144 0.5
-0.004776348491176685 0.004801006036450134 0.7049860323468529 144 238 144 0.5
-0.004568537688293812 0.004754571302456604 0.7049933640311982 144 238 144 0.5
-0.004361628652087828 0.004708282639076581 0.7050006145077755 144 238 144 0.5
-0.004155683161449419 0.004662152543926522 0.7050077779548904 144 238 144 0.5
-0.003950762995268823 0.004616193514622786 0.7050148485508474 144 238 144 0.5
-0.003746929932436729 0.0045704180487818324 0.7050218204739519 144 238 144 0.5
-0.0035442457518436734 0.004524838644020084 0.7050286879025084 144 238 144 0.5
-0.0033427722323801923 0.004479467797953967 0.7050354450148221 144 238 144 0.5
-0.0031425711529369654 0.004434318008199936 0.7050420859891977 144 238 144 0.5
-0.0029437042924042463 0.004389401772374354 0.7050486050039402 144 238 144 0.5
-0.0027462334296727156 0.0043447315880936754 0.7050549962373545 144 238 144 0.5
-0.0025502203436329114 0.004300319952974328 0.7050612538677455 144 238 144 0.5
-0.002355726813175368 0.004256179364632734 0.7050673720734183 144 238 144 0.5
-0.0021628146171906253 0.004212322320685321 0.7050733450326778 144 238 144 0.5
-0.0019715455345693553 0.0041687613187485414 0.7050791669238287 144 238 144 0.5
-0.001781981344201823 0.004125508856438758 0.7050848319251759 144 238 144 0.5
-0.001594183824978703 0.00408257743137243 0.7050903342150245 144 238 144 0.5
-0.001408214755790534 0.004039979541165979 0.7050956679716797 144 238 144 0.5
-0.0012241359155278498 0.003997727683435833 0.7051008273734458 144 238 144 0.5
-0.0010420090830813222 0.003955834355798442 0.7051058065986282 144 238 144 0.5
-0.0008618960373412221 0.003914312055870174 0.7051105998255315 144 238 144 0.5
-0.0006838585571982256 0.003873173281267483 0.705115201232461 144 238 144 0.5
-0.0005079584215428622 0.0038324305296067933 0.7051196049977211 144 238 144 0.5
-0.0003342574092656745 0.0037920962985045314 0.7051238052996172 144 238 144 0.5
-0.00016281729925732036 0.003752183085577148 0.7051277963164538 144 238 144 0.5
6.30012959190702e-06 0.0037127033884410132 0.7051315722265364 144 238 144 0.5
0.00017303309839134928 0.0036736697047125783 0.7051351272081694 144 238 144 0.5
0.000337319828250468 0.003635094532008269 0.705138455439658 144 238 144 0.5
0.0004990985402787249 0.003596990367944511 0.705141551099307 144 238 144 0.5
0.0006583074555854701 0.0035593697101377543 0.7051444083654215 144 238 144 0.5
0.0008148847952803946 0.0035222450562043695 0.705147021416306 144 238 144 0.5
0.0009687687804728435 0.0034856289037608103 0.7051493844302658 144 238 144 0.5
0.0011198976322722848 0.0034495337504235005 0.7051514915856057 144 238 144 0.5
0.0012682095717881764 0.003413972093808864 0.7051533370606308 144 238 144 0.5
0.001413642820129981 0.0033789564315333267 0.7051549150336456 144 238 144 0.5
0.0015561355984070615 0.0033444992612133373 0.7051562196829554 144 238 144 0.5
0.0016956261277290853 0.003310613080465271 0.7051572451868653 144 238 144 0.5
0.0018320526292054092 0.003277310386905578 0.7051579857236794 144 238 144 0.5
0.0019653533239455 0.0032446036781506836 0.7051584354717035 144 238 144 0.5
0.0020954664330588165 0.003212505451817011 0.705158588609242 144 238 144 0.5
0.002222330177654734 0.0031810282055210076 0.7051584393146001 144 238 144 0.5
0.0023458827788428948 0.0031501844368790545 0.7051579817660827 144 238 144 0.5
0.0024660625078004165 0.003119986634632311 0.7051572101443822 144 238 144 0.5
0.0025828400276818203 0.0030904415455404862 0.7051561201749742 144 238 144 0.5
0.0026962740967679225 0.0030615403001329295 0.705154711784615 144 238 144 0.5
0.0028064383082271774 0.0030332713992245954 0.7051529856075417 144 238 144 0.5
0.0029134062552282646 0.003005623343630376 0.7051509422779909 144 238 144 0.5
0.0030172515309396333 0.0029785846341652245 0.7051485824301991 144 238 144 0.5
0.0031180477285298112 0.0029521437716440754 0.7051459066984034 144 238 144 0.5
0.0032158684411673247 0.0029262892568818603 0.7051429157168401 144 238 144 0.5
0.003310787262020635 0.002901009590693532 0.7051396101197464 144 238 144 0.5
0.003402877784258404 0.0028762932738939854 0.7051359905413586 144 238 144 0.5
0.0034922136010490925 0.002852128807298173 0.7051320576159135 144 238 144 0.5
0.0035788683055612237 0.002828504691721029 0.7051278119776477 144 238 144 0.5
0.0036629154909633274 0.002805409427977485 0.7051232542607982 144 238 144 0.5
0.003744428750423931 0.0027828315168824756 0.7051183850996018 144 238 144 0.5
0.003823481677111504 0.0027607594592509483 0.7051132051282948 144 238 144 0.5
0.0039001478641946907 0.002739181755897805 0.7051077149811144 144 238 144 0.5
0.003974500904841957 0.0027180869076379958 0.7051019152922967 144 238 144 0.5
0.00404661439222183 0.002697463415286453 0.7050958066960789 144 238 144 0.5
0.0041165619195028405 0.00267729977965811 0.7050893898266976 144 238 144 0.5
0.004184417079853464 0.0026575845015679132 0.7050826653183891 144 238 144 0.5
0.004250253466442328 0.0026383060818307687 0.705075633805391 144 238 144 0.5
0.004314144672437909 0.0026194530212616234 0.7050682959219393 144 238 144 0.5
0.004376164291008734 0.0026010138206754106 0.705060652302271 144 238 144 0.5
0.004436385915323329 0.0025829769808870633 0.7050527035806224 144 238 144 0.5
0.0044948831385501825 0.0025653310027115277 0.705044450391231 144 238 144 0.5
0.004551729553857903 0.002548064386963711 0.7050358933683327 144 238 144 0.5
0.004606998754414979 0.00253116563445856 0.7050270331461648 144 238 144 0.5
0.004660764333389933 0.0025146232460110073 0.7050178703589638 144 238 144 0.5
0.004713099883951295 0.0024984257224359855 0.7050084056409663 144 238 144 0.5
0.004764078999267557 0.0024825615645484404 0.7049986396264092 144 238 144 0.5
0.004813775272507316 0.0024670192731632815 0.7049885729495292 144 238 144 0.5
0.004862262296839065 0.0024517873490954535 0.7049782062445628 144 238 144 0.5
0.00490961366543133 0.00243685429315989 0.7049675401457468 144 238 144 0.5
0.004955902971452638 0.0024222086061715235 0.7049565752873181 144 238 144 0.5
0.005001203808071518 0.0024078387889452887 0.7049453123035133 144 238 144 0.5
0.005045589768456462 0.0023937333422961262 0.7049337518285691 144 238 144 0.5
0.005089134445776066 0.002379880767038952 0.7049218944967224 144 238 144 0.5
0.005131911433198821 0.0023662695639887076 0.7049097409422095 144 238 144 0.5
0.0051739943238932554 0.002352888233960326 0.7048972917992673 144 238 144 0.5
0.005215456711027897 0.002339725277768741 0.7048845477021326 144 238 144 0.5
0.005256372187771243 0.002326769196228895 0.704871509285042 144 238 144 0.5
0.005296814347291879 0.0023140084901557027 0.7048581771822325 144 238 144 0.5
0.005336856782758305 0.0023014316603641068 0.7048445520279406 144 238 144 0.5
0.005376573087339046 0.0022890272076690403 0.7048306344564029 144 238 144 0.5
0.00541603685420263 0.002276783632885436 0.7048164251018564 144 238 144 0.5
0.0054553216765175555 0.0022646894368282358 0.7048019245985374 144 238 144 0.5
0.005494501147452407 0.002252733120312356 0.7047871335806831 144 238 144 0.5
0.005533648860175681 0.0022409031841527376 0.7047720526825298 144 238 144 0.5
0.005572838407855909 0.0022291881291643147 0.7047566825383145 144 238 144 0.5
0.0056121433836616155 0.0022175764561620202 0.7047410237822738 144 238 144 0.5
0.0056516373807612985 0.0022060566659607957 0.7047250770486445 144 238 144 0.5
0.005691393992323542 0.0021946172593755573 0.704708842971663 144 238 144 0.5
0.0057314868115168486 0.0021832467372212474 0.7046923221855664 144 238 144 0.5
0.005771989431509742 0.0021719336003127978 0.7046755153245912 144 238 144 0.5
0.00581297544547075 0.002160666349465142 0.7046584230229741 144 238 144 0.5
0.005854518446568401 0.0021494334854932147 0.7046410459149521 144 238 144 0.5
0.005896692027971189 0.0021382235092119554 0.7046233846347616 144 238 144 0.5
0.0059395697828477055 0.0021270249214362822 0.7046054398166394 144 238 144 0.5
0.0059832253043664435 0.0021158262229811356 0.7045872120948223 144 238 144 0.5
0.006027732185695934 0.0021046159146614505 0.7045687021035469 144 238 144 0.5
0.0060731640200047034 0.0020933824972921575 0.7045499104770501 144 238 144 0.5
0.006119594400461243 0.002082114471688199 0.7045308378495682 144 238 144 0.5
0.00616709692023415 0.002070800338664493 0.7045114848553383 144 238 144 0.5
0.006215745172491916 0.0020594285990359795 0.7044918521285971 144 238 144 0.5
0.006265612750403067 0.0020479877536175918 0.7044719403035811 144 238 144 0.5
0.006316773247136134 0.002036466303224263 0.7044517500145272 144 238 144 0.5
0.006369300255859605 0.0020248527486709357 0.7044312818956722 144 238 144 0.5
0.006423267369742081 0.0020131355907725256 0.7044105365812523 144 238 144 0.5
0.006478748181952052 0.0020013033303439742 0.7043895147055049 144 238 144 0.5
0.006535816285658046 0.001989344468200215 0.7043682169026662 144 238 144 0.5
0.006594545274028592 0.0019772475051561813 0.7043466438069732 144 238 144 0.5
0.006655008740232169 0.0019650009420268135 0.7043247960526624 144 238 144 0.5
0.006717280277437395 0.0019525932796270297 0.7043026742739709 144 238 144 0.5
0.006781433478812752 0.00194001301877177 0.7042802791051348 144 238 144 0.5
0.00684754193752677 0.0019272486602759683 0.7042576111803914 144 238 144 0.5
0.006915679246747973 0.0019142887049545582 0.7042346711339773 144 238 144 0.5
0.006985918999644889 0.0019011216536224714 0.7042114596001288 144 238 144 0.5
0.007058334789385994 0.0018877360070946522 0.704187977213083 144 238 144 0.5
0.0071330002091399185 0.001874120266186014 0.7041642246070765 144 238 144 0.5
0.007209988852075137 0.0018602629317115 0.7041402024163461 144 238 144 0.5
0.007289374311360178 0.001846152504486042 0.7041159112751283 144 238 144 0.5
0.007371230180163569 0.001831777485324575 0.7040913518176601 144 238 144 0.5
0.0074556300516537746 0.0018171263750420415 0.7040665246781782 144 238 144 0.5
0.007542647518999445 0.001802187674453354 0.704041430490919 144 238 144 0.5
0.0076323561753690455 0.0017869498843734568 0.7040160698901193 144 238 144 0.5
0.007724829613931105 0.001771401505617282 0.703990443510016 144 238 144 0.5
0.00782014142785415 0.0017555310389997633 0.7039645519848459 144 238 144 0.5
0.007918365210306637 0.0017393269853358453 0.7039383959488456 144 238 144 0.5
0.008019574554457232 0.0017227778454404386 0.7039119760362514 144 238 144 0.5
0.008123843053474395 0.0017058721201284872 0.7038852928813006 144 238 144 0.5
0.008231244300526653 0.001688598310214925 0.7038583471182297 144 238 144 0.5
0.008341851888782535 0.0016709449165146848 0.7038311393812754 144 238 144 0.5
0.008455739411410477 0.0016529004398427123 0.7038036703046744 144 238 144 0.5
0.00857298046157918 0.001634453381013916 0.7037759405226636 144 238 144 0.5
0.008693648632457085 0.0016155922408432406 0.7037479506694793 144 238 144 0.5
0.00881781751721272 0.00159630552014562 0.7037197013793585 144 238 144 0.5
0.008945560709014614 0.001576581719735987 0.7036911932865377 144 238 144 0.5
0.009076951801031293 0.0015564093404292758 0.7036624270252542 144 238 144 0.5
0.009212064386431185 0.0015357768830404335 0.7036334032297441 144 238 144 0.5
0.009350972058383013 0.0015146728483843635 0.7036041225342444 144 238 144 0.5
0.009493748410055205 0.0014930857372760147 0.7035745855729915 144 238 144 0.5
0.009640460743085616 0.0014710049898254119 0.7035447930373583 144 238 144 0.5
0.009791099235198827 0.00144843156036972 0.7035147463191087 144 238 144 0.5
0.009945602346805065 0.0014253741243909377 0.7034844472796714 144 238 144 0.5
0.01010390758386637 0.0014018414998655606 0.7034538977891431 144 238 144 0.5
0.010265952452344464 0.0013778425047701313 0.7034230997176197 144 238 144 0.5
0.010431674458201163 0.0013533859570811777 0.7033920549351981 144 238 144 0.5
0.010601011107398303 0.0013284806747752272 0.7033607653119746 144 238 144 0.5
0.010773899905897572 0.0013031354758288257 0.7033292327180454 144 238 144 0.5
0.010950278359661053 0.0012773591782184646 0.7032974590235072 144 238 144 0.5
0.01113008397465044 0.001251160599920689 0.7032654460984562 144 238 144 0.5
0.011313254256827561 0.0012245485589120267 0.7032331958129889 144 238 144 0.5
0.01149972671215424 0.0011975318731690047 0.703200710037202 144 238 144 0.5
0.01168943884659217 0.0011701193606681707 0.7031679906411916 144 238 144 0.5
0.011882328166103441 0.0011423198393860133 0.7031350394950542 144 238 144 0.5
0.012078332176649744 0.0011141421272990782 0.7031018584688861 144 238 144 0.5
0.012277388384192909 0.0010855950423838943 0.703068449432784 144 238 144 0.5
0.012479434294694752 0.0010566874026169879 0.7030348142568442 144 238 144 0.5
0.012684407414117103 0.0010274280259748867 0.7030009548111629 144 238 144 0.5
0.012892245248421644 0.0009978257304341406 0.702966872965837 144 238 144 0.5
0.013102885303570485 0.0009678893339712329 0.7029325705909625 144 238 144 0.5
0.013316265085525308 0.0009376276545627139 0.702898049556636 144 238 144 0.5
0.01353232210024794 0.0009070495101851099 0.7028633117329539 144 238 144 0.5
0.013750993853700202 0.0008761637188149491 0.7028283589900126 144 238 144 0.5
0.013972217851843764 0.0008449790984287805 0.7027931931979087 144 238 144 0.5
0.014195931600640763 0.0008135044670030878 0.7027578162267384 144 238 144 0.5
0.014422072606052867 0.0007817486425144208 0.7027222299465982 144 238 144 0.5
0.014650578374041906 0.0007497204429393062 0.7026864362275844 144 238 144 0.5
0.014881386410569696 0.0007174286862542721 0.7026504369397937 144 238 144 0.5
0.015114434221597903 0.0006848821904358686 0.7026142339533221 144 238 144 0.5
0.01534965931308868 0.0006520897734605774 0.7025778291382665 144 238 144 0.5
0.01558699919100369 0.0006190602533049489 0.7025412243647231 144 238 144 0.5
0.015826391361304756 0.0005858024479455106 0.7025044215027885 144 238 144 0.5
0.0160677733299537 0.0005523251753587898 0.7024674224225588 144 238 144 0.5
0.016311082602912176 0.0005186372535213381 0.7024302289941305 144 238 144 0.5
0.01655625668614235 0.00048474750040963566 0.7023928430876002 144 238 144 0.5
0.01680323308560588 0.00045066473400023264 0.7023552665730642 144 238 144 0.5
0.017051949307264596 0.0004163977722696577 0.702317501320619 144 238 144 0.5
0.01730234285708031 0.0003819554331944377 0.7022795492003611 144 238 144 0.5
0.01755435124101486 0.00034734653475110007 0.7022414120823867 144 238 144 0.5
0.017807911965029875 0.00031257989491619714 0.7022030918367924 144 238 144 0.5
0.01806296253508755 0.00027766433166620703 0.7021645903336744 144 238 144 0.5
0.01831944045714953 0.00024260866297768182 0.7021259094431292 144 238 144 0.5
0.018577283237177642 0.00020742170682714922 0.7020870510352535 144 238 144 0.5
0.018836428381133696 0.00017211228119113663 0.7020480169801435 144 238 144 0.5
0.019096813394979352 0.00013668920404619656 0.7020088091478957 144 238 144 0.5
0.019358375784676793 0.00010116129336880577 0.7019694294086063 144 238 144 0.5
0.01962105305618766 6.553736713551805e-05 0.7019298796323721 144 238 144 0.5
0.01988478271547378 2.9826243322859625e-05 0.7018901616892892 144 238 144 0.5
0.020149502268496985 -5.963260092641513e-06 0.7018502774494542 144 238 144 0.5
0.020415149221218894 -4.1822325134432026e-05 0.7018102287829634 144 238 144 0.5
0.020681661079601718 -7.774213382603581e-05 0.7017700175599133 144 238 144 0.5
0.0209489753496071 -0.0001137138681909003 0.7017296456504003 144 238 144 0.5
0.021217029537196855 -0.00014972871025249713 0.701689114924521 144 238 144 0.5
0.021485761148332814 -0.0001857778420342995 0.7016484272523716 144 238 144 0.5
0.0217551076889766 -0.00022185244555975405 0.7016075845040485 144 238 144 0.5
0.022025006665090434 -0.00025794370285238464 0.7015665885496483 144 238 144 0.5
0.022295395582635946 -0.00029404279593563825 0.7015254412592673 144 238 144 0.5
0.02256621194757496 -0.00033014090683298683 0.701484144503002 144 238 144 0.5
0.02283739326586929 -0.00036622921756790383 0.7014427001509487 144 238 144 0.5
0.023108877043480774 -0.0004022989101638606 0.7014011100732039 144 238 144 0.5
0.023380600786371046 -0.0004383411666443053 0.7013593761398642 144 238 144 0.5
0.023652502000502305 -0.00047434716903276095 0.7013175002210257 144 238 144 0.5
0.023924518191836188 -0.0005103080993526749 0.701275484186785 144 238 144 0.5
0.02419658686633452 -0.0005462151396275189 0.7012333299072386 144 238 144 0.5
0.024468645529959133 -0.0005820594718807662 0.7011910392524827 144 238 144 0.5
0.024740631688671647 -0.0006178322781358637 0.701148614092614 144 238 144 0.5
0.025012482848434273 -0.0006535247404163347 0.7011060562977287 144 238 144 0.5
0.025284136515208656 -0.0006891280407456263 0.7010633677379231 144 238 144 0.5
0.025555530194956613 -0.0007246333611472114 0.7010205502832941 144 238 144 0.5
0.025826601393639965 -0.0007600318836445618 0.7009776058039376 144 238 144 0.5
0.026097287617220345 -0.0007953147902611254 0.7009345361699506 144 238 144 0.5
0.026367526371659976 -0.0008304732630204252 0.7008913432514291 144 238 144 0.5
0.026637255162920474 -0.0008654984839459078 0.7008480289184695 144 238 144 0.5
0.026906411496963666 -0.0009003816350610462 0.7008045950411683 144 238 144 0.5
0.02717493287975139 -0.0009351138983893132 0.7007610434896222 144 238 144 0.5
0.02744275681724526 -0.0009696864559541558 0.7007173761339272 144 238 144 0.5
0.027709820815407495 -0.0010040904897790969 0.7006735948441798 144 238 144 0.5
0.027976062380199736 -0.001038317181887584 0.7006297014904768 144 238 144 0.5
0.028241419017583792 -0.0010723577143030895 0.7005856979429143 144 238 144 0.5
0.028505828233521498 -0.0011062032690490856 0.7005415860715887 144 238 144 0.5
0.028769227533974668 -0.0011398450281490447 0.7004973677465965 144 238 144 0.5
0.029031554424904953 -0.0011732741736264168 0.7004530448380342 144 238 144 0.5
0.02929274641227455 -0.0012064818875047209 0.7004086192159982 144 238 144 0.5
0.029552741002045094 -0.0012394593518074062 0.7003640927505849 144 238 144 0.5
0.0298114757001784 -0.0012721977485579444 0.7003194673118907 144 238 144 0.5
0.030068888012636304 -0.0013046882597798092 0.7002747447700118 144 238 144 0.5
0.03032491544538045 -0.0013369220674964496 0.7002299269950452 144 238 144 0.5
0.03057949550437302 -0.0013688903537313838 0.7001850158570866 144 238 144 0.5
0.03083256569557566 -0.0014005843005080617 0.700140013226233 144 238 144 0.5
0.0310840635249502 -0.0014319950898499562 0.7000949209725806 144 238 144 0.5
0.03133392649845846 -0.0014631139037805385 0.7000497409662259 144 238 144 0.5
0.03158209212206208 -0.0014939319243232607 0.7000044750772653 144 238 144 0.5
0.03182849790172325 -0.0015244403335016386 0.6999591251757951 144 238 144 0.5
0.03207308134340362 -0.0015546303133391229 0.699913693131912 144 238 144 0.5
0.032315779953065005 -0.0015844930458591853 0.6998681808157119 144 238 144 0.5
0.03255653123666923 -0.0016140197130852995 0.6998225900972918 144 238 144 0.5
0.03279527270017796 -0.001643201497040916 0.6997769228467478 144 238 144 0.5
0.03303194184955335 -0.0016720295797495507 0.6997311809341765 144 238 144 0.5
0.033266476190757066 -0.0017004951432346537 0.6996853662296743 144 238 144 0.5
0.033498813229750915 -0.0017285893695196983 0.6996394806033374 144 238 144 0.5
0.03372889056081782 -0.0017563034522863341 0.6995935259246127 144 238 144 0.5
0.03395667258782933 -0.0017836321240195872 0.6995475038657379 144 238 144 0.5
0.03418218809520604 -0.0018105786152872903 0.6995014156253723 144 238 144 0.5
0.03440547533290508 -0.001837147406086087 0.6994552623325483 144 238 144 0.5
0.0346265725508831 -0.0018633429764125604 0.6994090451162971 144 238 144 0.5
0.03484551799909687 -0.0018891698062633154 0.6993627651056508 144 238 144 0.5
0.0350623499275032 -0.0019146323756349544 0.6993164234296411 144 238 144 0.5
0.03527710658605873 -0.001939735164524065 0.6992700212173001 144 238 144 0.5
0.035489826224720585 -0.001964482652927286 0.6992235595976595 144 238 144 0.5
0.035700547093445376 -0.0019888793208412037 0.6991770396997512 144 238 144 0.5
0.03590930744218993 -0.0020129296482624213 0.6991304626526069 144 238 144 0.5
0.036116145520911025 -0.0020366381151875426 0.6990838295852586 144 238 144 0.5
0.03632109957956533 -0.0020600092016131565 0.6990371416267382 144 238 144 0.5
0.03652420786810993 -0.0020830473875358977 0.6989903999060774 144 238 144 0.5
0.03672550863650147 -0.0021057571529523554 0.6989436055523081 144 238 144 0.5
0.036925040134696746 -0.0021281429778591317 0.6988967596944621 144 238 144 0.5
0.037122840612652565 -0.0021502093422528317 0.6988498634615712 144 238 144 0.5
0.037318948320325576 -0.0021719607261300434 0.6988029179826672 144 238 144 0.5
0.03751340150767286 -0.0021934016094874013 0.6987559243867822 144 238 144 0.5
0.03770623842465109 -0.0022145364723214944 0.6987088838029479 144 238 144 0.5
0.03789749732121704 -0.002235369794628926 0.6986617973601963 144 238 144 0.5
0.03808721644732752 -0.0022559060564063 0.698614666187559 144 238 144 0.5
0.03827543405293933 -0.0022761497376502203 0.6985674914140677 144 238 144 0.5
0.03846218838800913 -0.0022961053183572764 0.6985202741687548 144 238 144 0.5
0.03864751770249398 -0.0023157772785241007 0.6984730155806514 144 238 144 0.5
0.038831460246350556 -0.0023351700981472834 0.6984257167787903 144 238 144 0.5
0.03901405426953564 -0.0023542882572234265 0.6983783788922023 144 238 144 0.5
0.039195338022006046 -0.0023731362357491356 0.6983310030499199 144 238 144 0.5
0.03937534975371844 -0.002391718513721001 0.698283590380975 144 238 144 0.5
0.03955412771462987 -0.0024100395711356528 0.6982361420143991 144 238 144 0.5
0.03973171015469702 -0.0024281038879896814 0.6981886590792241 144 238 144 0.5
0.039908135323876666 -0.0024459159442796917 0.6981411427044822 144 238 144 0.5
0.040083441472125614 -0.0024634802200022856 0.6980935940192047 144 238 144 0.5
0.040257666849400554 -0.002480801195154055 0.6980460141524236 144 238 144 0.5
0.040430849705658516 -0.0024978833497316306 0.697998404233171 144 238 144 0.5
0.04060302829085617 -0.0025147311637316017 0.6979507653904788 144 238 144 0.5
0.040774240854950315 -0.0025313491171505722 0.6979030987533784 144 238 144 0.5
0.040944525647897766 -0.002547741689985147 0.6978554054509021 144 238 144 0.5
0.041113920919655184 -0.002563913362231918 0.6978076866120813 144 238 144 0.5
0.04128246492017962 -0.002579868613887512 0.697759943365948 144 238 144 0.5
0.041450195899427736 -0.0025956119249485217 0.6977121768415344 144 238 144 0.5
0.041617152107356344 -0.0026111477754115495 0.697664388167872 144 238 144 0.5
0.041783371793922226 -0.0026264806452732017 0.6976165784739926 144 238 144 0.5
0.0419488932090822 -0.0026416150145300793 0.6975687488889282 144 238 144 0.5
0.04211375460279292 -0.0026565553631787775 0.6975209005417107 144 238 144 0.5
0.04227799422501145 -0.002671306171215921 0.6974730345613716 144 238 144 0.5
0.042441650325694455 -0.002685871918638102 0.697425152076943 144 238 144 0.5
0.04260476115479874 -0.0027002570854419263 0.6973772542174569 144 238 144 0.5
