ply
format ascii 1.0
element vertex 618
property float x
property float y
property float z
property uchar red
property uchar green
property uchar blue
property float size
end_header
0.406022556920018 -0.02637445279152589 0.38079275481102026 144 238 144 0.5
0.40602143566760995 -0.02637443704433231 0.38078788619477627 144 238 144 0.5
0.4060203779395474 -0.02637444553761126 0.3807831424731543 144 238 144 0.5
0.4060193813213175 -0.026374477421935466 0.3807785185038329 144 238 144 0.5
0.4060184433984068 -0.026374531847877657 0.3807740091444909 144 238 144 0.5
0.40601756175630266 -0.026374607966010575 0.3807696092528068 144 238 144 0.5
0.4060167339804919 -0.02637470492690693 0.3807653136864593 144 238 144 0.5
0.4060159576564614 -0.026374821881139463 0.38076111730312695 144 238 144 0.5
0.4060152303696983 -0.02637495797928091 0.38075701496048864 144 238 144 0.5
0.40601454970568956 -0.026375112371904003 0.3807530015162229 144 238 144 0.5
0.4060139132499221 -0.02637528420958147 0.3807490718280084 144 238 144 0.5
0.406013318587883 -0.026375472642886037 0.38074522075352374 144 238 144 0.5
0.40601276330505914 -0.026375676822390448 0.38074144315044767 144 238 144 0.5
0.40601224498693733 -0.02637589589866741 0.3807377338764587 144 238 144 0.5
0.40601176121900495 -0.02637612902228968 0.38073408778923556 144 238 144 0.5
0.40601130958674875 -0.026376375343829975 0.380730499746457 144 238 144 0.5
0.4060108876756557 -0.02637663401386103 0.3807269646058016 144 238 144 0.5
0.40601049307121284 -0.026376904182955577 0.3807234772249478 144 238 144 0.5
0.40601012335890707 -0.026377185001686346 0.3807200324615746 144 238 144 0.5
0.40600977612422545 -0.026377475620626065 0.3807166251733605 144 238 144 0.5
0.4060094489526549 -0.02637777519034747 0.3807132502179842 144 238 144 0.5
0.4060091394296826 -0.026378082861423294 0.3807099024531243 144 238 144 0.5
0.4060088451407951 -0.026378397784426254 0.3807065767364594 144 238 144 0.5
0.40600856367147975 -0.026378719109929092 0.38070326792566817 144 238 144 0.5
0.4060082926072234 -0.02637904598850455 0.38069997087842944 144 238 144 0.5
0.4060080295335131 -0.026379377570725334 0.38069668045242167 144 238 144 0.5
0.40600777203583566 -0.026379713007164195 0.38069339150532355 144 238 144 0.5
0.4060075176996782 -0.026380051448393855 0.38069009889481387 144 238 144 0.5
0.40600726411052773 -0.026380392044987048 0.38068679747857104 144 238 144 0.5
0.40600700885387114 -0.026380733947516503 0.38068348211427394 144 238 144 0.5
0.40600674951519544 -0.02638107630655496 0.3806801476596012 144 238 144 0.5
0.4060064836799876 -0.026381418272675133 0.3806767889722313 144 238 144 0.5
0.4060062089337346 -0.026381758996449768 0.38067340090984303 144 238 144 0.5
0.4060059228619234 -0.026382097628451586 0.3806699783301149 144 238 144 0.5
0.4060056230500411 -0.02638243331925333 0.3806665160907259 144 238 144 0.5
0.4060053070835746 -0.026382765219427718 0.3806630090493543 144 238 144 0.5
0.4060049725480107 -0.02638309247954749 0.380659452063679 144 238 144 0.5
0.4060046170288366 -0.026383414250185366 0.3806558399913785 144 238 144 0.5
0.4060042381115393 -0.026383729681914093 0.3806521676901315 144 238 144 0.5
0.40600383338160556 -0.026384037925306393 0.3806484300176167 144 238 144 0.5
0.40600340042452265 -0.026384338130935 0.38064462183151276 144 238 144 0.5
0.4060029368257773 -0.02638462944937264 0.3806407379894984 144 238 144 0.5
0.4060024401708567 -0.02638491103119205 0.38063677334925194 144 238 144 0.5
0.4060019080452476 -0.026385182026965957 0.38063272276845245 144 238 144 0.5
0.40600133803443705 -0.026385441587267088 0.3806285811047782 144 238 144 0.5
0.40600072772391216 -0.026385688862668188 0.38062434321590827 144 238 144 0.5
0.40600007469915983 -0.026385923003741978 0.380620003959521 144 238 144 0.5
0.405999376545667 -0.026386143161061186 0.3806155581932952 144 238 144 0.5
0.40599863084892074 -0.026386348485198555 0.3806110007749094 144 238 144 0.5
0.40599783519440785 -0.0263865381267268 0.38060632656204224 144 238 144 0.5
0.40599698716761556 -0.026386711236218663 0.3806015304123725 144 238 144 0.5
0.40599608435403056 -0.02638686696424687 0.38059660718357874 144 238 144 0.5
0.4059951243391401 -0.026387004461384166 0.38059155173333964 144 238 144 0.5
0.4059941047084311 -0.026387122878203273 0.380586358919334 144 238 144 0.5
0.4059930230473904 -0.026387221365276905 0.38058102359924023 144 238 144 0.5
0.4059918769415051 -0.026387299073177817 0.3805755406307371 144 238 144 0.5
0.4059906639762621 -0.026387355152478736 0.3805699048715033 144 238 144 0.5
0.4059893817371485 -0.02638738875375238 0.3805641111792174 144 238 144 0.5
0.4059880278096511 -0.026387399027571493 0.3805581544115581 144 238 144 0.5
0.40598659977925705 -0.02638738512450879 0.380552029426204 144 238 144 0.5
0.4059850952314532 -0.026387346195137034 0.38054573108083384 144 238 144 0.5
0.40598351175172664 -0.02638728139002892 0.38053925423312623 144 238 144 0.5
0.4059818469255642 -0.0263871898597572 0.38053259374075976 144 238 144 0.5
0.40598009833845305 -0.0263870707548946 0.38052574446141324 144 238 144 0.5
0.40597826357588007 -0.026386923226013853 0.3805187012527651 144 238 144 0.5
0.4059763402233323 -0.02638674642368768 0.3805114589724943 144 238 144 0.5
0.40597432586629656 -0.026386539498488824 0.3805040124782792 144 238 144 0.5
0.40597221809025996 -0.026386301600990012 0.3804963566277986 144 238 144 0.5
0.40597001448070946 -0.026386031881763982 0.3804884862787311 144 238 144 0.5
0.40596771262313197 -0.026385729491383448 0.3804803962887554 144 238 144 0.5
0.4059653101030147 -0.02638539358042116 0.38047208151555023 144 238 144 0.5
0.40596280450584427 -0.026385023299449837 0.380463536816794 144 238 144 0.5
0.4059601934171079 -0.026384617799042206 0.3804547570501655 144 238 144 0.5
0.4059574744222925 -0.026384176229771017 0.3804457370733435 144 238 144 0.5
0.40595464510688517 -0.026383697742208986 0.3804364717440065 144 238 144 0.5
0.4059517030563727 -0.026383181486928843 0.38042695591983317 144 238 144 0.5
0.40594864585624224 -0.026382626614503326 0.3804171844585023 144 238 144 0.5
0.40594547109198054 -0.026382032275505167 0.3804071522176923 144 238 144 0.5
0.4059421763490748 -0.02638139762050709 0.380396854055082 144 238 144 0.5
0.405938759213012 -0.02638072180008183 0.38038628482835 144 238 144 0.5
0.4059352172692789 -0.02638000396480212 0.38037543939517504 144 238 144 0.5
0.4059315481033627 -0.02637924326524069 0.3803643126132357 144 238 144 0.5
0.4059277493007502 -0.026378438851970266 0.38035289934021055 144 238 144 0.5
0.4059238184469286 -0.026377589875563587 0.3803411944337784 144 238 144 0.5
0.4059197531273847 -0.026376695486593382 0.3803291927516178 144 238 144 0.5
0.40591555092760556 -0.026375754835632374 0.38031688915140743 144 238 144 0.5
0.4059112094330781 -0.026374767073253307 0.380304278490826 144 238 144 0.5
0.40590672622928925 -0.026373731350028903 0.380291355627552 144 238 144 0.5
0.40590209890172624 -0.02637264681653189 0.3802781154192642 144 238 144 0.5
0.40589732503587583 -0.02637151262333501 0.38026455272364135 144 238 144 0.5
0.4058924022173913 -0.026370327921072356 0.38025066239873784 144 238 144 0.5
0.4058873289644819 -0.0263690922044418 0.3802364414106461 144 238 144 0.5
0.4058821069165788 -0.026367806119707272 0.3802218937809653 144 238 144 0.5
0.40587673836535776 -0.026366470553776316 0.3802070250056894 144 238 144 0.5
0.40587122560249445 -0.026365086393556482 0.3801918405808124 144 238 144 0.5
0.4058655709196641 -0.026363654525955293 0.3801763460023281 144 238 144 0.5
0.40585977660854256 -0.02636217583788031 0.38016054676623035 144 238 144 0.5
0.4058538449608053 -0.026360651216239057 0.38014444836851313 144 238 144 0.5
0.40584777826812773 -0.02635908154793909 0.3801280563051703 144 238 144 0.5
0.40584157882218574 -0.026357467719887936 0.38011137607219586 144 238 144 0.5
0.40583524891465467 -0.026355810618993145 0.3800944131655837 144 238 144 0.5
0.4058287908372101 -0.026354111132162253 0.38007717308132755 144 238 144 0.5
0.4058222068815278 -0.02635237014630281 0.3800596613154216 144 238 144 0.5
0.40581549933928296 -0.02635058854832234 0.38004188336385947 144 238 144 0.5
0.4058086705021514 -0.0263487672251284 0.38002384472263523 144 238 144 0.5
0.4058017226618086 -0.02634690706362852 0.3800055508877427 144 238 144 0.5
0.4057946581099303 -0.02634500895073026 0.379987007355176 144 238 144 0.5
0.40578747913819185 -0.026343073773341136 0.37996821962092864 144 238 144 0.5
0.40578018803826893 -0.026341102418368706 0.3799491931809949 144 238 144 0.5
0.40577278710183706 -0.026339095772720506 0.37992993353136845 144 238 144 0.5
0.4057652786205718 -0.02633705472330408 0.37991044616804326 144 238 144 0.5
0.4057576648861486 -0.026334980157026948 0.3798907365870133 144 238 144 0.5
0.40574994819024335 -0.026332872960796682 0.3798708102842723 144 238 144 0.5
0.40574213082453137 -0.026330734021520814 0.37985067275581447 144 238 144 0.5
0.40573421508068824 -0.026328564226106868 0.3798303294976333 144 238 144 0.5
0.40572620325038955 -0.026326364461462397 0.379809786005723 144 238 144 0.5
0.40571809762531097 -0.026324135614494953 0.37978904777607747 144 238 144 0.5
0.4057099004971279 -0.026321878572112063 0.37976812030469054 144 238 144 0.5
0.4057016141575161 -0.02631959422122127 0.37974700908755604 144 238 144 0.5
0.4056932408981509 -0.026317283448730116 0.379725719620668 144 238 144 0.5
0.40568478301070793 -0.02631494714154614 0.37970425740002023 144 238 144 0.5
0.40567624278686293 -0.026312586186576902 0.3796826279216067 144 238 144 0.5
0.40566762251829125 -0.026310201470729908 0.37966083668142125 144 238 144 0.5
0.4056589244966685 -0.02630779388091272 0.3796388891754578 144 238 144 0.5
0.4056501510136704 -0.026305364304032887 0.3796167908997104 144 238 144 0.5
0.40564130436097245 -0.026302913626997933 0.3795945473501727 144 238 144 0.5
0.4056323868302501 -0.0263004427367154 0.3795721640228387 144 238 144 0.5
0.405623400713179 -0.026297952520092843 0.3795496464137023 144 238 144 0.5
0.4056143483014347 -0.026295443864037794 0.37952700001875767 144 238 144 0.5
0.40560523188669273 -0.02629291765545779 0.3795042303339983 144 238 144 0.5
0.40559605376062874 -0.026290374781260378 0.3794813428554183 144 238 144 0.5
0.40558681621491827 -0.0262878161283531 0.37945834307901155 144 238 144 0.5
0.40557752154123683 -0.026285242583643502 0.37943523650077204 144 238 144 0.5
0.40556817203126005 -0.026282655034039103 0.3794120286166935 144 238 144 0.5
0.40555876997666335 -0.02628005436644747 0.37938872492276987 144 238 144 0.5
0.4055493176691225 -0.02627744146777612 0.37936533091499514 144 238 144 0.5
0.40553981740031303 -0.02627481722493262 0.3793418520893633 144 238 144 0.5
0.4055302714619104 -0.026272182524824494 0.379318293941868 144 238 144 0.5
0.4055206821455902 -0.026269538254359286 0.3792946619685033 144 238 144 0.5
0.4055110517430281 -0.026266885300444538 0.3792709616652631 144 238 144 0.5
0.40550138254589957 -0.02626422454998779 0.37924719852814126 144 238 144 0.5
0.40549167684588017 -0.02626155688989658 0.3792233780531317 144 238 144 0.5
0.40548193693464546 -0.026258883207078455 0.3791995057362283 144 238 144 0.5
0.40547216510387113 -0.02625620438844096 0.379175587073425 144 238 144 0.5
0.4054623636452326 -0.026253521320891624 0.37915162756071574 144 238 144 0.5
0.4054525348504055 -0.026250834891337997 0.37912763269409444 144 238 144 0.5
0.4054426810110653 -0.02624814598668761 0.3791036079695548 144 238 144 0.5
0.4054328044188878 -0.026245455493848026 0.37907955888309103 144 238 144 0.5
0.40542290736554826 -0.02624276429972676 0.37905549093069674 144 238 144 0.5
0.4054129921427224 -0.026240073291231358 0.3790314096083659 144 238 144 0.5
0.40540306104208584 -0.026237383355269376 0.3790073204120926 144 238 144 0.5
0.40539311635531416 -0.026234695378748348 0.3789832288378706 144 238 144 0.5
0.40538316037408284 -0.02623201024857581 0.3789591403816938 144 238 144 0.5
0.40537319539006744 -0.026229328851659302 0.3789350605395563 144 238 144 0.5
0.4053632236949435 -0.026226652074906376 0.3789109948074516 144 238 144 0.5
0.4053532475803866 -0.026223980805224558 0.3788869486813739 144 238 144 0.5
0.40534326933807235 -0.026221315929521396 0.37886292765731705 144 238 144 0.5
0.4053332912596763 -0.026218658334704433 0.3788389372312749 144 238 144 0.5
0.4053233156368741 -0.026216008907681224 0.3788149828992416 144 238 144 0.5
0.40531334476134123 -0.02621336853535928 0.3787910701572106 144 238 144 0.5
0.40530338092475315 -0.026210738104646157 0.3787672045011761 144 238 144 0.5
0.40529342641878563 -0.026208118502449404 0.3787433914271321 144 238 144 0.5
0.4052834835351141 -0.026205510615676553 0.3787196364310723 144 238 144 0.5
0.40527355456541425 -0.026202915331235144 0.3786959450089907 144 238 144 0.5
0.40526364180136143 -0.026200333536032714 0.37867232265688106 144 238 144 0.5
0.4052537475346315 -0.02619776611697682 0.3786487748707375 144 238 144 0.5
0.40524387405689966 -0.026195213960974986 0.3786253071465537 144 238 144 0.5
0.4052340236598418 -0.02619267795493476 0.3786019249803238 144 238 144 0.5
0.4052241986351333 -0.02619015898576369 0.37857863386804147 144 238 144 0.5
0.40521440127444985 -0.026187657940369313 0.3785554393057009 144 238 144 0.5
0.4052046338694669 -0.026185175705659154 0.3785323467892956 144 238 144 0.5
0.4051948987118601 -0.026182713168540764 0.37850936181481976 144 238 144 0.5
0.405185198093305 -0.026180271215921706 0.37848648987826733 144 238 144 0.5
0.4051755343054771 -0.02617785073470949 0.37846373647563203 144 238 144 0.5
0.4051659096400521 -0.026175452611811676 0.3784411071029079 144 238 144 0.5
0.4051563263887054 -0.02617307773413579 0.37841860725608867 144 238 144 0.5
0.40514678684311267 -0.026170726988589386 0.37839624243116843 144 238 144 0.5
0.4051372932949494 -0.02616840126208 0.37837401812414095 144 238 144 0.5
0.4051278480358913 -0.02616610144151518 0.3783519398310003 144 238 144 0.5
0.4051184533576138 -0.026163828413802447 0.3783300130477401 144 238 144 0.5
0.4051091115517925 -0.026161583065849363 0.3783082432703546 144 238 144 0.5
0.40509982491010293 -0.026159366284563453 0.3782866359948374 144 238 144 0.5
0.40509059572422074 -0.026157178956852278 0.37826519671718256 144 238 144 0.5
0.40508142628582156 -0.02615502196962336 0.37824393093338404 144 238 144 0.5
0.4050723188865808 -0.026152896209784258 0.37822284413943574 144 238 144 0.5
0.40506327581817403 -0.02615080256424249 0.3782019418313313 144 238 144 0.5
0.40505429937227677 -0.026148741919905613 0.37818122950506483 144 238 144 0.5
0.40504539184056476 -0.026146715163681163 0.3781607126566303 144 238 144 0.5
0.40503655551471357 -0.026144723182476688 0.37814039678202155 144 238 144 0.5
0.40502779268639855 -0.026142766863199718 0.37812028737723236 144 238 144 0.5
0.40501910564729543 -0.026140847092757796 0.3781003899382567 144 238 144 0.5
0.40501049655598326 -0.026138964705060774 0.37808070965908586 144 238 144 0.5
0.40500196562230123 -0.026137119758049315 0.37806124731191765 144 238 144 0.5
0.4049935115775256 -0.026135311720915037 0.3780420003140148 144 238 144 0.5
0.40498513311612544 -0.02613354004819308 0.37802296599912105 144 238 144 0.5
0.4049768289325694 -0.026131804194418577 0.37800414170098035 144 238 144 0.5
0.40496859772132643 -0.02613010361412665 0.37798552475333647 144 238 144 0.5
0.40496043817686517 -0.02612843776185242 0.3779671124899333 144 238 144 0.5
0.40495234899365445 -0.02612680609213101 0.3779489022445145 144 238 144 0.5
0.40494432886616316 -0.02612520805949757 0.37793089135082425 144 238 144 0.5
0.40493637648886 -0.0261236431184872 0.3779130771426061 144 238 144 0.5
0.4049284905562138 -0.026122110723635045 0.3778954569536039 144 238 144 0.5
0.4049206697626934 -0.026120610329476227 0.37787802811756155 144 238 144 0.5
0.40491291280276753 -0.02611914139054587 0.377860787968223 144 238 144 0.5
0.4049052183709049 -0.026117703361379103 0.3778437338393317 144 238 144 0.5
0.4048975851615745 -0.02611629569651105 0.3778268630646319 144 238 144 0.5
0.404890011869245 -0.026114917850476847 0.3778101729778672 144 238 144 0.5
0.4048824971883853 -0.026113569277811617 0.37779366091278155 144 238 144 0.5
0.40487503981346407 -0.02611224943305048 0.37777732420311866 144 238 144 0.5
0.4048676384389502 -0.026110957770728565 0.3777611601826225 144 238 144 0.5
0.4048602917593124 -0.026109693745381007 0.3777451661850369 144 238 144 0.5
0.4048529984690195 -0.02610845681154293 0.3777293395441055 144 238 144 0.5
0.40484575726254035 -0.026107246423749456 0.3777136775935723 144 238 144 0.5
0.4048385668343437 -0.026106062036535718 0.3776981776671811 144 238 144 0.5
0.40483142587889837 -0.026104903104436836 0.3776828370986757 144 238 144 0.5
0.40482433309067306 -0.026103769081987943 0.3776676532218 144 238 144 0.5
0.40481728716413673 -0.026102659423724167 0.37765262337029776 144 238 144 0.5
0.4048102867937581 -0.02610157358418063 0.3776377448779128 144 238 144 0.5
0.4048033306740059 -0.02610051101789246 0.3776230150783891 144 238 144 0.5
0.40479641749934897 -0.02609947117939479 0.37760843130547034 144 238 144 0.5
0.4047895459642561 -0.02609845352322273 0.3775939908929003 144 238 144 0.5
0.4047827147631962 -0.026097457503911438 0.3775796911744231 144 238 144 0.5
0.4047759225906379 -0.026096482575996005 0.37756552948378225 144 238 144 0.5
0.4047691681410501 -0.02609552819401158 0.3775515031547217 144 238 144 0.5
0.4047624501089015 -0.026094593812493287 0.3775376095209853 144 238 144 0.5
0.404755767188661 -0.026093678885976253 0.377523845916317 144 238 144 0.5
0.40474911807479735 -0.026092782868995603 0.3775102096744604 144 238 144 0.5
0.40474250146177937 -0.026091905216086463 0.3774966981291595 144 238 144 0.5
0.4047359160440758 -0.02609104538178396 0.377483308614158 144 238 144 0.5
0.40472936051615555 -0.026090202820623222 0.3774700384631999 144 238 144 0.5
0.40472283357248723 -0.026089376987139378 0.3774568850100289 144 238 144 0.5
0.40471633390753975 -0.026088567335867553 0.37744384558838884 144 238 144 0.5
0.40470986021578204 -0.026087773321342874 0.3774309175320237 144 238 144 0.5
0.4047034111916826 -0.026086994398100468 0.37741809817467714 144 238 144 0.5
0.4046969855297104 -0.026086230020675463 0.377405384850093 144 238 144 0.5
0.40469058192433427 -0.02608547964360298 0.37739277489201517 144 238 144 0.5
0.40468419907002284 -0.026084742721418162 0.3773802656341875 144 238 144 0.5
0.40467783566124516 -0.02608401870865611 0.3773678544103538 144 238 144 0.5
0.4046714903924698 -0.026083307059851978 0.37735553855425785 144 238 144 0.5
0.40466516195816565 -0.026082607229540873 0.3773433153996436 144 238 144 0.5
0.4046588490528015 -0.026081918672257936 0.37733118228025475 144 238 144 0.5
0.40465255037084613 -0.02608124084253828 0.3773191365298353 144 238 144 0.5
0.40464626460676834 -0.02608057319491705 0.37730717548212894 144 238 144 0.5
0.40463999045503696 -0.02607991518392936 0.3772952964708794 144 238 144 0.5
0.4046337266101207 -0.026079266264110345 0.37728349682983087 144 238 144 0.5
0.4046274717664885 -0.026078625889995117 0.37727177389272687 144 238 144 0.5
0.4046212246186091 -0.026077993516118825 0.37726012499331135 144 238 144 0.5
0.40461498386095107 -0.02607736859701657 0.37724854746532804 144 238 144 0.5
0.4046087481879836 -0.026076750587223505 0.37723703864252095 144 238 144 0.5
0.40460251629417515 -0.026076138941274737 0.37722559585863374 144 238 144 0.5
0.4045962868739948 -0.026075533113705404 0.3772142164474104 144 238 144 0.5
0.40459005862191105 -0.026074932559050634 0.37720289774259463 144 238 144 0.5
0.4045838302323929 -0.026074336731845543 0.3771916370779303 144 238 144 0.5
0.4045776003999091 -0.02607374508662527 0.3771804317871613 144 238 144 0.5
0.4045713678189284 -0.026073157077924933 0.3771692792040313 144 238 144 0.5
0.4045651311839197 -0.026072572160279667 0.3771581766622844 144 238 144 0.5
0.4045588891893517 -0.026071989788224597 0.37714712149566426 144 238 144 0.5
0.40455264052969314 -0.026071409416294843 0.37713611103791456 144 238 144 0.5
0.404546383899413 -0.026070830499025536 0.3771251426227795 144 238 144 0.5
0.4045401179929799 -0.026070252490951806 0.37711421358400266 144 238 144 0.5
0.40453384150486277 -0.026069674846608777 0.377103321255328 144 238 144 0.5
0.4045275531295304 -0.026069097020531583 0.3770924629704992 144 238 144 0.5
0.40452125156145147 -0.02606851846725534 0.3770816360632602 144 238 144 0.5
0.4045149354950949 -0.026067938641315187 0.3770708378673548 144 238 144 0.5
0.4045086036249293 -0.026067356997246233 0.37706006571652667 144 238 144 0.5
0.40450225464542366 -0.026066772989583625 0.3770493169445201 144 238 144 0.5
0.4044958872510467 -0.026066186072862478 0.3770385888850785 144 238 144 0.5
0.40448950013626717 -0.02606559570161792 0.3770278788719458 144 238 144 0.5
0.40448309199555393 -0.026065001330385078 0.3770171842388659 144 238 144 0.5
0.4044766615233758 -0.026064402413699082 0.3770065023195826 144 238 144 0.5
0.4044702074142016 -0.026063798406095066 0.3769958304478398 144 238 144 0.5
0.4044637283625 -0.02606318876210814 0.37698516595738124 144 238 144 0.5
0.40445722306273985 -0.026062572936273447 0.3769745061819507 144 238 144 0.5
0.40445069020939 -0.026061950383126108 0.3769638484552922 144 238 144 0.5
0.40444412849691913 -0.026061320557201242 0.37695319011114936 144 238 144 0.5
0.4044375366197962 -0.026060682913033983 0.3769425284832662 144 238 144 0.5
0.4044309132724898 -0.026060036905159463 0.37693186090538644 144 238 144 0.5
0.40442425714946895 -0.026059381988112803 0.3769211847112539 144 238 144 0.5
0.40441756694520237 -0.026058717616429132 0.37691049723461256 144 238 144 0.5
0.4044108413541587 -0.02605804324464357 0.376899795809206 144 238 144 0.5
0.4044040790708069 -0.026057358327291252 0.3768890777687783 144 238 144 0.5
0.4043972787896157 -0.026056662318907305 0.37687834044707313 144 238 144 0.5
0.40439043920505396 -0.026055954674026858 0.3768675811778345 144 238 144 0.5
0.40438355901159045 -0.02605523484718503 0.376856797294806 144 238 144 0.5
0.40437663690369396 -0.02605450229291695 0.3768459861317316 144 238 144 0.5
0.40436967157583326 -0.026053756465757756 0.3768351450223552 144 238 144 0.5
0.40436266172247715 -0.026052996820242556 0.37682427130042045 144 238 144 0.5
0.40435560603809445 -0.02605222281090649 0.3768133622996714 144 238 144 0.5
0.40434850321715393 -0.026051433892284682 0.3768024153538516 144 238 144 0.5
0.40434135195412435 -0.026050629518912263 0.37679142779670516 144 238 144 0.5
0.4043341509434746 -0.02604980914532435 0.3767803969619758 144 238 144 0.5
0.4043268988806315 -0.026048972226436706 0.3767693201849247 144 238 144 0.5
0.4043195948787333 -0.02604811838313152 0.37675819546246625 144 238 144 0.5
0.404312239120538 -0.02604724766127511 0.37674702248578473 144 238 144 0.5
0.4043048319575889 -0.026046360173796378 0.3767358012134207 144 238 144 0.5
0.40429737374142977 -0.02604545603362423 0.37672453160391467 144 238 144 0.5
0.4042898648236044 -0.026044535353687566 0.3767132136158074 144 238 144 0.5
0.4042823055556564 -0.02604359824691529 0.3767018472076394 144 238 144 0.5
0.4042746962891296 -0.02604264482623631 0.37669043233795124 144 238 144 0.5
0.4042670373755674 -0.02604167520457951 0.37667896896528347 144 238 144 0.5
0.4042593291665137 -0.026040689494873818 0.37666745704817683 144 238 144 0.5
0.40425157201351214 -0.026039687810048107 0.3766558965451717 144 238 144 0.5
0.40424376626810626 -0.026038670263031298 0.3766442874148087 144 238 144 0.5
0.4042359122818399 -0.026037636966752285 0.37663262961562843 144 238 144 0.5
0.4042280104062567 -0.02603658803413997 0.37662092310617157 144 238 144 0.5
0.40422006099290037 -0.02603552357812326 0.37660916784497855 144 238 144 0.5
0.4042120643933145 -0.026034443711631047 0.37659736379059006 144 238 144 0.5
0.4042040209590428 -0.026033348547592244 0.3765855109015466 144 238 144 0.5
0.40419593104162904 -0.026032238198935752 0.3765736091363889 144 238 144 0.5
0.40418779499261676 -0.026031112778590455 0.37656165845365736 144 238 144 0.5
0.4041796131635498 -0.02602997239948528 0.3765496588118926 144 238 144 0.5
0.4041713859059716 -0.026028817174549107 0.3765376101696353 144 238 144 0.5
0.40416311357142615 -0.026027647216710855 0.3765255124854259 144 238 144 0.5
0.40415479651145675 -0.026026462638899413 0.376513365717805 144 238 144 0.5
0.4041464350776075 -0.02602526355404369 0.3765011698253133 144 238 144 0.5
0.40413802962142187 -0.02602405007507259 0.3764889247664914 144 238 144 0.5
0.4041295804944434 -0.02602282231491501 0.37647663049987967 144 238 144 0.5
0.404121088048216 -0.026021580386499845 0.37646428698401885 144 238 144 0.5
0.40411255263428336 -0.02602032440275601 0.37645189417744956 144 238 144 0.5
0.404103974604189 -0.026019054476612395 0.3764394520387122 144 238 144 0.5
0.4040953543094767 -0.02601777072099791 0.3764269605263475 144 238 144 0.5
0.40408669210168996 -0.02601647324884145 0.37641441959889593 144 238 144 0.5
0.40407798833237274 -0.02601516217307193 0.3764018292148982 144 238 144 0.5
0.4040692433530686 -0.026013837606618236 0.37638918933289484 144 238 144 0.5
0.40406045751532116 -0.02601249966240928 0.3763764999114264 144 238 144 0.5
0.40405163117067416 -0.026011148453373958 0.37636376090903356 144 238 144 0.5
0.40404276467067135 -0.026009784092441177 0.3763509722842567 144 238 144 0.5
0.4040338583668562 -0.026008406692539825 0.3763381339956365 144 238 144 0.5
0.4040249126107725 -0.02600701636659882 0.3763252460017136 144 238 144 0.5
0.4040159277539641 -0.02600561322754707 0.3763123082610286 144 238 144 0.5
0.40400690414797436 -0.026004197388313444 0.3762993207321219 144 238 144 0.5
0.40399784214434725 -0.026002768961826874 0.3762862833735343 144 238 144 0.5
0.4039887420946263 -0.02600132806101625 0.3762731961438062 144 238 144 0.5
0.40397960435035524 -0.025999874798810486 0.3762600590014784 144 238 144 0.5
0.4039704292630777 -0.02599840928813846 0.3762468719050912 144 238 144 0.5
0.4039612171843373 -0.025996931641929098 0.37623363481318534 144 238 144 0.5
0.4039519684656779 -0.02599544197311128 0.3762203476843014 144 238 144 0.5
0.40394268345864304 -0.02599394039461393 0.37620701047698 144 238 144 0.5
0.4039333625147765 -0.02599242701936593 0.3761936231497616 144 238 144 0.5
0.40392400598562195 -0.0259909019602962 0.3761801856611869 144 238 144 0.5
0.40391461422272296 -0.025989365330333622 0.37616669796979635 144 238 144 0.5
0.4039051875776233 -0.025987817242407115 0.37615316003413063 144 238 144 0.5
0.4038957264018666 -0.02598625780944557 0.3761395718127304 144 238 144 0.5
0.40388623104699667 -0.02598468714437789 0.376125933264136 144 238 144 0.5
0.403876701864557 -0.02598310536013299 0.3761122443468882 144 238 144 0.5
0.40386713920609124 -0.02598151256963975 0.3760985050195275 144 238 144 0.5
0.4038575434231434 -0.02597990888582708 0.3760847152405945 144 238 144 0.5
0.4038479148672568 -0.025978294421623888 0.3760708749686298 144 238 144 0.5
0.4038382538899754 -0.02597666928995908 0.376056984162174 144 238 144 0.5
0.4038285608428427 -0.025975033603761542 0.37604304277976763 144 238 144 0.5
0.4038188360774023 -0.025973387475960178 0.37602905077995125 144 238 144 0.5
0.4038090799451982 -0.025971731019483902 0.3760150081212655 144 238 144 0.5
0.40379929279777377 -0.02597006434726161 0.37600091476225095 144 238 144 0.5
0.40378947498667284 -0.025968387572222203 0.37598677066144814 144 238 144 0.5
0.403779626863439 -0.02596670080729457 0.3759725757773977 144 238 144 0.5
0.4037697487796161 -0.025965004165407635 0.37595833006864016 144 238 144 0.5
0.4037598410867477 -0.0259632977594903 0.37594403349371625 144 238 144 0.5
0.4037499041363774 -0.025961581702471443 0.37592968601116633 144 238 144 0.5
0.403739938280049 -0.025959856107279983 0.3759152875795311 144 238 144 0.5
0.4037299438693061 -0.02595812108684482 0.3759008381573511 144 238 144 0.5
0.40371992125569256 -0.025956376754094852 0.3758863377031669 144 238 144 0.5
0.40370987079075177 -0.02595462322195898 0.37587178617551914 144 238 144 0.5
0.40369979282602764 -0.025952860603366105 0.37585718353294845 144 238 144 0.5
0.40368968771306385 -0.025951089011245144 0.37584252973399535 144 238 144 0.5
0.4036795558034039 -0.025949308558524977 0.3758278247372002 144 238 144 0.5
0.4036693974485916 -0.025947519358134517 0.37581306850110396 144 238 144 0.5
0.40365921300017055 -0.02594572152300266 0.37579826098424696 144 238 144 0.5
0.40364900280968463 -0.02594391516605832 0.37578340214517 144 238 144 0.5
0.4036387672286774 -0.025942100400230397 0.3757684919424134 144 238 144 0.5
0.4036285066086924 -0.025940277338447774 0.37575353033451775 144 238 144 0.5
0.4036182213012734 -0.02593844609363937 0.3757385172800239 144 238 144 0.5
0.4036079116579642 -0.02593660677873408 0.3757234527374722 144 238 144 0.5
0.40359757803030827 -0.025934759506660805 0.3757083366654033 144 238 144 0.5
0.4035872207698496 -0.025932904390348455 0.37569316902235783 144 238 144 0.5
0.4035768402281315 -0.02593104154272592 0.3756779497668763 144 238 144 0.5
0.4035664367566979 -0.025929171076722116 0.37566267885749927 144 238 144 0.5
0.40355601070709246 -0.025927293105265932 0.3756473562527674 144 238 144 0.5
0.4035455624308587 -0.025925407741286273 0.37563198191122116 144 238 144 0.5
0.40353509227954043 -0.025923515097712044 0.3756165557914013 144 238 144 0.5
0.4035246006046813 -0.025921615287472142 0.3756010778518482 144 238 144 0.5
0.40351408775782505 -0.02591970842349547 0.3755855480511026 144 238 144 0.5
0.4035035540905152 -0.025917794618710938 0.375569966347705 144 238 144 0.5
0.4034929999542958 -0.02591587398604744 0.3755543327001961 144 238 144 0.5
0.4034824257007101 -0.02591394663843388 0.37553864706711626 144 238 144 0.5
0.40347183168130185 -0.025912012688799148 0.3755229094070062 144 238 144 0.5
0.40346121824761494 -0.025910072250072174 0.37550711967840655 144 238 144 0.5
0.40345058575119286 -0.02590812543518182 0.3754912778398577 144 238 144 0.5
0.4034399345435794 -0.02590617235705702 0.3754753838499005 144 238 144 0.5
0.40342926497631826 -0.025904213128626667 0.3754594376670753 144 238 144 0.5
0.4034185774009531 -0.025902247862819666 0.3754434392499228 144 238 144 0.5
0.40340787216902746 -0.025900276672564906 0.3754273885569835 144 238 144 0.5
0.4033971496320851 -0.025898299670791297 0.37541128554679803 144 238 144 0.5
0.403386410191362 -0.025896316979175358 0.375395130313196 144 238 144 0.5
0.40337565476606735 -0.02589432881057549 0.37537892436020803 144 238 144 0.5
0.4033648845832629 -0.02589233543204324 0.37536267003000623 144 238 144 0.5
0.4033541008740789 -0.025890337111346286 0.3753463696758375 144 238 144 0.5
0.4033433048696455 -0.025888334116252323 0.3753300256509493 144 238 144 0.5
0.40333249780109254 -0.02588632671452903 0.37531364030858894 144 238 144 0.5
0.40332168089955023 -0.025884315173944076 0.3752972160020035 144 238 144 0.5
0.4033108553961487 -0.025882299762265155 0.3752807550844402 144 238 144 0.5
0.40330002252201796 -0.02588028074725995 0.3752642599091466 144 238 144 0.5
0.403289183508288 -0.025878258396696132 0.3752477328293695 144 238 144 0.5
0.403278339586089 -0.02587623297834139 0.3752311761983565 144 238 144 0.5
0.4032674919865511 -0.025874204759963413 0.3752145923693548 144 238 144 0.5
0.4032566419408042 -0.025872174009329875 0.3751979836956115 144 238 144 0.5
0.4032457906799784 -0.02587014099420845 0.37518135253037405 144 238 144 0.5
0.403234939435204 -0.025868105982366833 0.37516470122688955 144 238 144 0.5
0.40322408943761084 -0.025866069241572698 0.37514803213840525 144 238 144 0.5
0.4032132419183291 -0.02586403103959374 0.3751313476181685 144 238 144 0.5
0.4032023981084888 -0.025861991644197623 0.3751146500194266 144 238 144 0.5
0.40319155923922 -0.025859951323152035 0.37509794169542665 144 238 144 0.5
0.40318072654165277 -0.02585791034422467 0.37508122499941604 144 238 144 0.5
0.4031699012469173 -0.025855868975183192 0.3750645022846418 144 238 144 0.5
0.40315908458614363 -0.02585382748379529 0.37504777590435145 144 238 144 0.5
0.4031482777904618 -0.02585178613782865 0.3750310482117921 144 238 144 0.5
0.40313748209100186 -0.025849745205050956 0.3750143215602111 144 238 144 0.5
0.4031266987188939 -0.025847704953229873 0.37499759830285556 144 238 144 0.5
0.403115928905268 -0.025845665650133104 0.3749808807929727 144 238 144 0.5
0.4031051738812542 -0.025843627563528312 0.37496417138381 144 238 144 0.5
0.40309443487798274 -0.0258415909611832 0.37494747242861454 144 238 144 0.5
0.4030837131265835 -0.02583955611086543 0.3749307862806337 144 238 144 0.5
0.4030730098581865 -0.025837523280342695 0.37491411529311464 144 238 144 0.5
0.4030623263039221 -0.025835492737382674 0.37489746181930456 144 238 144 0.5
0.4030516636949202 -0.02583346474975305 0.3748808282124508 144 238 144 0.5
0.4030410232623109 -0.0258314395852215 0.37486421682580057 144 238 144 0.5
0.40303040623722414 -0.02582941751155571 0.3748476300126012 144 238 144 0.5
0.4030198138507902 -0.02582739879652337 0.3748310701260999 144 238 144 0.5
0.4030092473341391 -0.02582538370789215 0.3748145395195439 144 238 144 0.5
0.40299870791840087 -0.025823372513429733 0.3747980405461804 144 238 144 0.5
0.40298819683470566 -0.025821365480903802 0.3747815755592568 144 238 144 0.5
0.40297771531418347 -0.025819362878082047 0.37476514691202023 144 238 144 0.5
0.4029672645879643 -0.025817364972732137 0.3747487569577179 144 238 144 0.5
0.40295684588717834 -0.02581537203262176 0.37473240804959723 144 238 144 0.5
0.40294646044295573 -0.025813384325518607 0.3747161025409055 144 238 144 0.5
0.40293610948642644 -0.025811402119190346 0.3746998427848897 144 238 144 0.5
0.40292579424872055 -0.025809425681404662 0.37468363113479725 144 238 144 0.5
0.40291551596096814 -0.025807455279929243 0.3746674699438754 144 238 144 0.5
0.40290527585429925 -0.02580549118253176 0.3746513615653714 144 238 144 0.5
0.4028950751598441 -0.02580353365697991 0.3746353083525325 144 238 144 0.5
0.4028849151087326 -0.025801582971041365 0.3746193126586059 144 238 144 0.5
0.4028747969320949 -0.025799639392483805 0.3746033768368389 144 238 144 0.5
0.4028647218610611 -0.025797703189074924 0.37458750324047885 144 238 144 0.5
0.4028546911267612 -0.025795774628582388 0.3745716942227728 144 238 144 0.5
0.4028447059603253 -0.025793853978773883 0.374555952136968 144 238 144 0.5
0.40283476759288345 -0.0257919415074171 0.37454027933631195 144 238 144 0.5
0.40282487725556587 -0.025790037482279714 0.3745246781740517 144 238 144 0.5
0.4028150361795025 -0.025788142171129413 0.3745091510034346 144 238 144 0.5
0.4028052455958235 -0.025786255841733868 0.3744937001777079 144 238 144 0.5
0.4027955067356587 -0.02578437876186077 0.3744783280501187 144 238 144 0.5
0.40278582083013853 -0.025782511199277797 0.3744630369739145 144 238 144 0.5
0.40277618911039287 -0.02578065342175263 0.3744478293023423 144 238 144 0.5
0.4027666128075519 -0.025778805697052955 0.37443270738864953 144 238 144 0.5
0.40275709315274555 -0.025776968292946456 0.37441767358608347 144 238 144 0.5
0.40274763137710384 -0.0257751414772008 0.3744027302478911 144 238 144 0.5
0.40273822871175713 -0.025773325517583694 0.37438787972732 144 238 144 0.5
0.40272888638783527 -0.02577152068186279 0.3743731243776173 144 238 144 0.5
0.40271960563646847 -0.025769727237805802 0.3743584665520302 144 238 144 0.5
0.40271038768878675 -0.02576794545318039 0.374343908603806 144 238 144 0.5
0.4027012337759201 -0.025766175595754233 0.3743294528861919 144 238 144 0.5
0.40269214512899865 -0.025764417933295022 0.37431510175243515 144 238 144 0.5
0.4026831229791525 -0.025762672733570448 0.3743008575557832 144 238 144 0.5
0.40267416855751187 -0.025760940264348182 0.3742867226494831 144 238 144 0.5
0.40266528309520644 -0.025759220793395897 0.37427269938678204 144 238 144 0.5
0.4026564678233666 -0.02575751458848129 0.37425879012092744 144 238 144 0.5
0.40264772397312243 -0.02575582191737204 0.3742449972051666 144 238 144 0.5
0.4026390527756039 -0.025754143047835822 0.37423132299274653 144 238 144 0.5
0.4026304554619411 -0.02575247824764033 0.3742177698369147 144 238 144 0.5
0.40262193326326406 -0.025750827784553235 0.37420434009091824 144 238 144 0.5
0.4026134874107031 -0.025749191926342226 0.3741910361080045 144 238 144 0.5
0.4026051191353879 -0.025747570940774973 0.3741778602414207 144 238 144 0.5
0.4025968296684488 -0.025745965095619175 0.374164814844414 144 238 144 0.5
0.4025886202410159 -0.025744374658642502 0.37415190227023176 144 238 144 0.5
0.40258049208421903 -0.025742799897612637 0.37413912487212125 144 238 144 0.5
0.40257244642918855 -0.025741241080297263 0.37412648500332957 144 238 144 0.5
0.40256448450705434 -0.025739698474464067 0.37411398501710413 144 238 144 0.5
0.4025566075489466 -0.025738172347880728 0.3741016272666921 144 238 144 0.5
0.4025488167859954 -0.02573666296831493 0.37408941410534086 144 238 144 0.5
0.40254111344933075 -0.025735170603534342 0.3740773478862975 144 238 144 0.5
0.40253349877008265 -0.02573369552130666 0.37406543096280925 144 238 144 0.5
0.4025259739793813 -0.025732237989399564 0.37405366568812354 144 238 144 0.5
0.4025185403083568 -0.025730798275580728 0.37404205441548755 144 238 144 0.5
0.4025111989881391 -0.025729376647617846 0.37403059949814843 144 238 144 0.5
0.4025039512498584 -0.025727973373278593 0.37401930328935357 144 238 144 0.5
0.40249679832464474 -0.02572658872033065 0.37400816814235016 144 238 144 0.5
0.40248974144362804 -0.0257252229565417 0.3739971964103854 144 238 144 0.5
0.40248278183793856 -0.02572387634967942 0.3739863904467066 144 238 144 0.5
0.4024759207387064 -0.02572254916751151 0.3739757526045612 144 238 144 0.5
0.40246915937706157 -0.02572124167780563 0.37396528523719613 144 238 144 0.5
0.402462498984134 -0.025719954148329466 0.37395499069785876 144 238 144 0.5
0.402455940791054 -0.025718686846850712 0.37394487133979637 144 238 144 0.5
0.40244948602895153 -0.02571744004113705 0.3739349295162563 144 238 144 0.5
0.40244313592895664 -0.02571621399895614 0.3739251675804856 144 238 144 0.5
0.4024368917135709 -0.025715008986557823 0.37391558787179413 144 238 144 0.5
0.4024307534863023 -0.025713825073348618 0.37390619092201755 144 238 144 0.5
0.40242471913589134 -0.02571266193913302 0.373896973685548 144 238 144 0.5
0.40241878629072414 -0.025711519217916305 0.3738879326962357 144 238 144 0.5
0.4024129525791871 -0.025710396543703804 0.37387906448793135 144 238 144 0.5
0.40240721562966625 -0.0257092935505008 0.37387036559448533 144 238 144 0.5
0.40240157307054814 -0.025708209872312614 0.3738618325497482 144 238 144 0.5
0.40239602253021867 -0.025707145143144535 0.37385346188757024 144 238 144 0.5
0.4023905616370642 -0.02570609899700188 0.3738452501418021 144 238 144 0.5
0.40238518801947126 -0.025705071067889964 0.37383719384629405 144 238 144 0.5
0.4023798993058257 -0.025704060989814072 0.37382928953489675 144 238 144 0.5
0.40237469312451407 -0.025703068396779515 0.37382153374146054 144 238 144 0.5
0.40236956710392247 -0.025702092922791603 0.3738139229998358 144 238 144 0.5
0.40236451887243707 -0.025701134201855633 0.37380645384387323 144 238 144 0.5
0.40235954605844426 -0.02570019186797692 0.37379912280742306 144 238 144 0.5
0.4023546462903302 -0.025699265555160763 0.37379192642433584 144 238 144 0.5
0.4023498171964812 -0.02569835489741247 0.3737848612284622 144 238 144 0.5
0.40234505640528345 -0.025697459528737338 0.3737779237536522 144 238 144 0.5
0.4023403615451233 -0.02569657908314068 0.3737711105337567 144 238 144 0.5
0.40233573024438685 -0.0256957131946278 0.37376441810262595 144 238 144 0.5
0.4023311601314604 -0.025694861497204007 0.37375784299411047 144 238 144 0.5
0.40232664883473024 -0.025694023624874593 0.37375138174206063 144 238 144 0.5
0.4023221939825826 -0.025693199211644875 0.37374503088032696 144 238 144 0.5
0.4023177932034038 -0.02569238789152015 0.3737387869427599 144 238 144 0.5
0.4023134441255799 -0.025691589298505735 0.3737326464632101 144 238 144 0.5
0.4023091443774973 -0.02569080306660692 0.3737266059755278 144 238 144 0.5
0.40230489158754207 -0.025690028829829015 0.3737206620135634 144 238 144 0.5
0.4023006833841007 -0.025689266222177334 0.37371481111116756 144 238 144 0.5
0.4022965173955593 -0.025688514877657175 0.37370904980219066 144 238 144 0.5
0.4022923912503042 -0.025687774430273837 0.3737033746204832 144 238 144 0.5
0.40228830257672143 -0.02568704451403264 0.3736977820998955 144 238 144 0.5
0.4022842490031974 -0.025686324762938872 0.37369226877427814 144 238 144 0.5
0.40228022815811854 -0.025685614810997848 0.37368683117748164 144 238 144 0.5
0.40227623766987075 -0.025684914292214877 0.3736814658433562 144 238 144 0.5
0.4022722751668405 -0.025684222840595253 0.3736761693057527 144 238 144 0.5
0.40226833827741393 -0.025683540090144293 0.37367093809852125 144 238 144 0.5
0.4022644246299773 -0.025682865674867283 0.3736657687555124 144 238 144 0.5
0.4022605318529169 -0.025682199228769544 0.3736606578105766 144 238 144 0.5
0.40225665757461887 -0.025681540385856377 0.3736556017975644 144 238 144 0.5
0.40225279942346964 -0.025680888780133092 0.3736505972503262 144 238 144 0.5
0.4022489550278554 -0.025680244045604986 0.37364564070271244 144 238 144 0.5
0.4022451220161622 -0.02567960581627737 0.3736407286885735 144 238 144 0.5
0.40224129801677655 -0.025678973726155546 0.3736358577417601 144 238 144 0.5
0.4022374806580846 -0.02567834740924482 0.37363102439612256 144 238 144 0.5
0.4022336675684725 -0.0256777264995505 0.3736262251855112 144 238 144 0.5
0.4022298563763267 -0.025677110631077884 0.3736214566437767 144 238 144 0.5
0.4022260447100333 -0.025676499437832276 0.3736167153047694 144 238 144 0.5
0.4022222301979785 -0.025675892553818982 0.3736119977023397 144 238 144 0.5
0.40221841046854867 -0.02567528961304332 0.3736073003703383 144 238 144 0.5
0.4022145831501299 -0.025674690249510586 0.3736026198426154 144 238 144 0.5
0.4022107458711087 -0.02567409409722608 0.37359795265302154 144 238 144 0.5
0.4022068962598711 -0.025673500790195116 0.3735932953354073 144 238 144 0.5
0.40220303194480345 -0.025672909962422986 0.37358864442362294 144 238 144 0.5
0.40219915055429184 -0.025672321247915006 0.37358399645151913 144 238 144 0.5
0.4021952497167227 -0.025671734280676487 0.3735793479529462 144 238 144 0.5
0.40219132706048216 -0.025671148694712716 0.37357469546175454 144 238 144 0.5
0.4021873802139566 -0.025670564124029016 0.37357003551179485 144 238 144 0.5
0.4021834068055321 -0.025669980202630675 0.37356536463691736 144 238 144 0.5
0.40217940446359507 -0.025669396564523016 0.3735606793709727 144 238 144 0.5
0.4021753708165316 -0.025668812843711322 0.3735559762478111 144 238 144 0.5
0.40217130349272795 -0.02566822867420092 0.3735512518012832 144 238 144 0.5
0.40216720012057067 -0.02566764368999711 0.37354650256523964 144 238 144 0.5
0.40216305832844546 -0.025667057525105178 0.3735417250735304 144 238 144 0.5
0.402158875744739 -0.025666469813530456 0.37353691586000637 144 238 144 0.5
0.40215464999783745 -0.02566588018927823 0.3735320714585178 144 238 144 0.5
0.40215037871612697 -0.025665288286353814 0.37352718840291516 144 238 144 0.5
0.40214605952799387 -0.025664693738762515 0.37352226322704907 144 238 144 0.5
0.4021416900618244 -0.02566409618050963 0.3735172924647698 144 238 144 0.5
0.4021372679460047 -0.02566349524560047 0.37351227264992787 144 238 144 0.5
0.4021327908089211 -0.025662890568040334 0.37350720031637374 144 238 144 0.5
0.4021282562789598 -0.02566228178183453 0.37350207199795793 144 238 144 0.5
0.4021236619845072 -0.025661668520988366 0.3734968842285308 144 238 144 0.5
0.4021190055539494 -0.025661050419507146 0.37349163354194287 144 238 144 0.5
0.4021142846156728 -0.025660427111396177 0.37348631647204467 144 238 144 0.5
0.40210949679806335 -0.025659798230660755 0.3734809295526865 144 238 144 0.5
0.40210463972950755 -0.02565916341130619 0.3734754693177189 144 238 144 0.5
0.40209971103839154 -0.025658522287337792 0.3734699323009924 144 238 144 0.5
0.4020947083531016 -0.025657874492760864 0.37346431503635735 144 238 144 0.5
0.402089629302024 -0.025657219661580702 0.3734586140576643 144 238 144 0.5
0.402084471513545 -0.025656557427802627 0.37345282589876366 144 238 144 0.5
0.40207923261605083 -0.025655887425431928 0.37344694709350584 144 238 144 0.5
0.4020739102379276 -0.025655209288473924 0.3734409741757414 144 238 144 0.5
0.4020685020075618 -0.025654522650933907 0.37343490367932075 144 238 144 0.5
0.40206300555333946 -0.025653827146817184 0.37342873213809435 144 238 144 0.5
0.4020574185036469 -0.02565312241012907 0.3734224560859126 144 238 144 0.5
0.4020517384868705 -0.02565240807487486 0.3734160720566262 144 238 144 0.5
0.40204596313139623 -0.02565168377505987 0.37340957658408525 144 238 144 0.5
0.40204009006561053 -0.0256509491446894 0.37340296620214053 144 238 144 0.5
0.40203411691789975 -0.025650203817768745 0.3733962374446424 144 238 144 0.5
0.4020280413166499 -0.02564944742830322 0.37338938684544115 144 238 144 0.5
0.4020218608902473 -0.02564867961029813 0.3733824109383875 144 238 144 0.5
0.40201557326707826 -0.02564789999775878 0.37337530625733173 144 238 144 0.5
0.40200917607552894 -0.025647108224690466 0.3733680693361243 144 238 144 0.5
0.4020026669439856 -0.025646303925098504 0.37336069670861577 144 238 144 0.5
0.4019960435008346 -0.025645486732988197 0.37335318490865665 144 238 144 0.5
0.40198930337446215 -0.025644656282364845 0.3733455304700972 144 238 144 0.5
0.40198244419325435 -0.02564381220723376 0.37333772992678804 144 238 144 0.5
0.4019754635855976 -0.025642954141600238 0.3733297798125796 144 238 144 0.5
0.4019683591798782 -0.0256420817194696 0.3733216766613224 144 238 144 0.5
0.40196112860448224 -0.025641194574847134 0.3733134170068667 144 238 144 0.5
0.40195376948779593 -0.025640292341738147 0.3733049973830631 144 238 144 0.5
0.40194627985992 -0.025639374705958243 0.3732964148439016 144 238 144 0.5
0.40193866082711616 -0.025638441750064554 0.37328767042638406 144 238 144 0.5
0.40193091491750127 -0.02563749373999509 0.3732787670085296 144 238 144 0.5
0.4019230446668766 -0.025636530942678943 0.3732697074783072 144 238 144 0.5
0.4019150526110436 -0.025635553625045174 0.3732604947236856 144 238 144 0.5
0.4019069412858033 -0.025634562054022886 0.37325113163263407 144 238 144 0.5
0.4018987132269572 -0.025633556496541143 0.37324162109312137 144 238 144 0.5
0.40189037097030655 -0.025632537219529045 0.3732319659931164 144 238 144 0.5
0.40188191705165255 -0.02563150448991565 0.37322216922058815 144 238 144 0.5
0.4018733540067966 -0.025630458574630064 0.3732122336635055 144 238 144 0.5
0.40186468437153994 -0.025629399740601348 0.37320216220983743 144 238 144 0.5
0.4018559106816839 -0.02562832825475859 0.37319195774755276 144 238 144 0.5
0.4018470354730297 -0.02562724438403088 0.37318162316462056 144 238 144 0.5
0.40183806128137867 -0.02562614839534729 0.3731711613490098 144 238 144 0.5
0.4018289906425321 -0.0256250405556369 0.3731605751886893 144 238 144 0.5
0.4018198260922913 -0.025623921131828792 0.37314986757162794 144 238 144 0.5
0.40181057016645755 -0.025622790390852062 0.37313904138579473 144 238 144 0.5
0.40180122540083213 -0.025621648599635772 0.37312809951915865 144 238 144 0.5
0.40179179433121637 -0.025620496025109008 0.37311704485968855 144 238 144 0.5
0.4017822794934114 -0.02561933293420085 0.37310588029535335 144 238 144 0.5
0.4017726834232188 -0.0256181595938404 0.37309460871412203 144 238 144 0.5
0.40176300865643955 -0.025616976270956705 0.3730832330039635 144 238 144 0.5
0.40175325772887516 -0.02561578323247887 0.3730717560528467 144 238 144 0.5
0.40174343317632694 -0.02561458074533597 0.37306018074874053 144 238 144 0.5
0.40173353753459595 -0.02561336907645709 0.373048509979614 144 238 144 0.5
