ply
format ascii 1.0
element vertex 624
property float x
property float y
property float z
property uchar red
property uchar green
property uchar blue
property float size
end_header
0.4299050193393196 0.013226693543836543 0.46785586861967604 144 238 144 0.5
0.4299184530779602 0.013203196842361077 0.46778946490950823 144 238 144 0.5
0.42993134817473944 0.013180531854965346 0.4677252932849858 144 238 144 0.5
0.4299437129229097 0.01315868707485798 0.46766332242454944 144 238 144 0.5
0.42995555561572396 0.013137650995247635 0.4676035210066407 144 238 144 0.5
0.42996688454643434 0.013117412109342877 0.46754585770970003 144 238 144 0.5
0.4299777080082936 0.013097958910352366 0.46749030121216856 144 238 144 0.5
0.42998803429455446 0.013079279891484729 0.4674368201924872 144 238 144 0.5
0.42999787169846915 0.013061363545948616 0.4673853833290972 144 238 144 0.5
0.4300072285132906 0.013044198366952604 0.46733595930043914 144 238 144 0.5
0.430016113032271 0.013027772847705345 0.4672885167849542 144 238 144 0.5
0.4300245335486633 0.013012075481415464 0.4672430244610832 144 238 144 0.5
0.43003249835571966 0.012997094761291593 0.4671994510072673 144 238 144 0.5
0.43004001574669315 0.01298281918054238 0.4671577651019474 144 238 144 0.5
0.4300470940148358 0.012969237232376403 0.4671179354235644 144 238 144 0.5
0.43005374145340064 0.012956337410002317 0.4670799306505593 144 238 144 0.5
0.4300599663556398 0.012944108206628745 0.467043719461373 144 238 144 0.5
0.4300657770148061 0.012932538115464317 0.4670092705344465 144 238 144 0.5
0.4300711817241522 0.012921615629717673 0.4669765525482211 144 238 144 0.5
0.4300761887769305 0.012911329242597408 0.4669455341811373 144 238 144 0.5
0.4300808064663936 0.012901667447312169 0.4669161841116363 144 238 144 0.5
0.430085043085794 0.012892618737070578 0.46688847101815883 144 238 144 0.5
0.4300889069283845 0.012884171605081268 0.46686236357914634 144 238 144 0.5
0.4300924062874174 0.012876314544552871 0.4668378304730394 144 238 144 0.5
0.43009554945614537 0.012869036048693995 0.4668148403782789 144 238 144 0.5
0.43009834472782094 0.012862324610713276 0.4667933619733062 144 238 144 0.5
0.43010080039569676 0.012856168723819344 0.466773363936562 144 238 144 0.5
0.4301029247530254 0.012850556881220823 0.46675481494648724 144 238 144 0.5
0.4301047260930593 0.012845477576126346 0.466737683681523 144 238 144 0.5
0.43010621270905103 0.012840919301744533 0.4667219388201102 144 238 144 0.5
0.4301073928942533 0.012836870551284008 0.4667075490406898 144 238 144 0.5
0.4301082749419186 0.012833319817953407 0.46669448302170297 144 238 144 0.5
0.4301088671452996 0.012830255594961353 0.4666827094415903 144 238 144 0.5
0.4301091777976486 0.012827666375516477 0.466672196978793 144 238 144 0.5
0.43010921519221845 0.012825540652827398 0.4666629143117521 144 238 144 0.5
0.43010898762226163 0.012823866920102747 0.4666548301189084 144 238 144 0.5
0.4301085033810306 0.012822633670551153 0.4666479130787029 144 238 144 0.5
0.43010777076177803 0.012821829397381239 0.4666421318695767 144 238 144 0.5
0.43010679805775637 0.012821442593801633 0.46663745516997046 144 238 144 0.5
0.43010559356221834 0.012821461753020963 0.4666338516583255 144 238 144 0.5
0.4301041655684164 0.01282187536824786 0.46663129001308257 144 238 144 0.5
0.4301025223696033 0.012822671932690943 0.46662973891268267 144 238 144 0.5
0.4301006722590313 0.012823839939558847 0.46662916703556695 144 238 144 0.5
0.43009862352995315 0.012825367882060188 0.466629543060176 144 238 144 0.5
0.43009638447562143 0.012827244253403607 0.4666308356649513 144 238 144 0.5
0.4300939633892887 0.012829457546797722 0.4666330135283334 144 238 144 0.5
0.43009136856420743 0.01283199625545116 0.4666360453287634 144 238 144 0.5
0.4300886082936302 0.012834848872572552 0.4666398997446823 144 238 144 0.5
0.4300856908708097 0.01283800389137052 0.466644545454531 144 238 144 0.5
0.4300826245889985 0.012841449805053697 0.4666499511367505 144 238 144 0.5
0.43007941774144903 0.012845175106830708 0.4666560854697819 144 238 144 0.5
0.43007607862141384 0.012849168289910175 0.4666629171320658 144 238 144 0.5
0.4300726155221457 0.012853417847500737 0.4666704148020437 144 238 144 0.5
0.430069036736897 0.012857912272811 0.4666785471581561 144 238 144 0.5
0.4300653505589203 0.01286264005904961 0.4666872828788441 144 238 144 0.5
0.43006156528146827 0.012867589699425192 0.4666965906425488 144 238 144 0.5
0.4300576891977934 0.012872749687146365 0.4667064391277111 144 238 144 0.5
0.43005373060114827 0.012878108515421764 0.4667167970127719 144 238 144 0.5
0.4300496977847855 0.01288365467746 0.4667276329761722 144 238 144 0.5
0.4300455990419576 0.012889376666469722 0.466738915696353 144 238 144 0.5
0.43004144266591715 0.012895262975659546 0.4667506138517552 144 238 144 0.5
0.43003723694991675 0.012901302098238102 0.46676269612081994 144 238 144 0.5
0.43003299018720886 0.012907482527414011 0.466775131181988 144 238 144 0.5
0.4300287106710462 0.0129137927563959 0.46678788771370033 144 238 144 0.5
0.4300244066946812 0.012920221278392404 0.46680093439439807 144 238 144 0.5
0.4300200865513665 0.012926756586612147 0.46681423990252213 144 238 144 0.5
0.43001575853435464 0.012933387174263756 0.46682777291651334 144 238 144 0.5
0.43001143093689814 0.012940101534555855 0.4668415021148128 144 238 144 0.5
0.43000711205224973 0.012946888160697065 0.4668553961758615 144 238 144 0.5
0.43000281017366176 0.01295373554589603 0.46686942377810037 144 238 144 0.5
0.429998533594387 0.01296063218336137 0.46688355359997036 144 238 144 0.5
0.42999429060767785 0.012967566566301707 0.4668977543199124 144 238 144 0.5
0.42999008950678697 0.01297452718792567 0.46691199461636756 144 238 144 0.5
0.4299859385849669 0.012981502541441876 0.4669262431677767 144 238 144 0.5
0.4299818461354702 0.012988481120058976 0.4669404686525808 144 238 144 0.5
0.4299778204515495 0.012995451416985581 0.46695463974922086 144 238 144 0.5
0.4299738698264572 0.013002401925430323 0.46696872513613785 144 238 144 0.5
0.4299700025534461 0.013009321138601815 0.4669826934917728 144 238 144 0.5
0.4299662269257685 0.013016197549708708 0.4669965134945666 144 238 144 0.5
0.42996255123667715 0.013023019651959613 0.46701015382296024 144 238 144 0.5
0.4299589837794247 0.013029775938563165 0.46702358315539466 144 238 144 0.5
0.4299555328472634 0.013036454902727982 0.46703677017031087 144 238 144 0.5
0.42995220673344614 0.01304304503766269 0.4670496835461498 144 238 144 0.5
0.4299490137312253 0.01304953483657593 0.4670622919613524 144 238 144 0.5
0.42994596213385355 0.01305591279267632 0.4670745640943597 144 238 144 0.5
0.4299430602345833 0.013062167399172488 0.4670864686236126 144 238 144 0.5
0.4299403163266673 0.013068287149273059 0.46709797422755217 144 238 144 0.5
0.42993773870335794 0.013074260536186653 0.4671090495846192 144 238 144 0.5
0.42993533565790804 0.013080076053121916 0.46711966337325495 144 238 144 0.5
0.42993311548356994 0.013085722193287465 0.4671297842719001 144 238 144 0.5
0.4299310864735963 0.013091187449891926 0.46713938095899576 144 238 144 0.5
0.42992925692123957 0.013096460316143926 0.46714842211298285 144 238 144 0.5
0.42992763511975246 0.013101529285252085 0.4671568764123023 144 238 144 0.5
0.4299262291561146 0.013106383091848866 0.4671647132320928 144 238 144 0.5
0.42992504229742795 0.013111016111799 0.46717191822688287 144 238 144 0.5
0.42992407294853846 0.013115428411799898 0.4671784934737282 144 238 144 0.5
0.42992331929954297 0.01311962030989309 0.46718444177500923 144 238 144 0.5
0.42992277954053854 0.013123592124120108 0.4671897659331069 144 238 144 0.5
0.429922451861622 0.013127344172522495 0.4671944687504017 144 238 144 0.5
0.42992233445289046 0.013130876773141781 0.4671985530292746 144 238 144 0.5
0.4299224255044408 0.013134190244019501 0.4672020215721062 144 238 144 0.5
0.42992272320637 0.01313728490319719 0.4672048771812773 144 238 144 0.5
0.429923225748775 0.013140161068716376 0.4672071226591684 144 238 144 0.5
0.42992393132175283 0.0131428190586186 0.46720876080816054 144 238 144 0.5
0.4299248381154004 0.013145259190945398 0.46720979443063426 144 238 144 0.5
0.4299259443198146 0.0131474817837383 0.4672102263289703 144 238 144 0.5
0.4299272481250926 0.013149487155038843 0.46721005930554943 144 238 144 0.5
0.4299287477213313 0.01315127562288856 0.4672092961627525 144 238 144 0.5
0.42993044129862756 0.013152847505328984 0.46720793970296 144 238 144 0.5
0.4299323270470784 0.013154203120401652 0.4672059927285527 144 238 144 0.5
0.4299344031567808 0.013155342786148097 0.4672034580419114 144 238 144 0.5
0.42993666781783163 0.01315626682060985 0.4672003384454167 144 238 144 0.5
0.429939119220328 0.013156975541828453 0.4671966367414495 144 238 144 0.5
0.42994175555436687 0.013157469267845438 0.4671923557323905 144 238 144 0.5
0.4299445750100452 0.01315774831670234 0.46718749822062045 144 238 144 0.5
0.42994757577745973 0.013157813006440682 0.4671820670085199 144 238 144 0.5
0.42995075604670774 0.013157663655102016 0.46717606489846963 144 238 144 0.5
0.429954114007886 0.013157300580727865 0.4671694946928505 144 238 144 0.5
0.4299576478510916 0.013156724101359768 0.4671623591940432 144 238 144 0.5
0.42996135576642136 0.013155934535039259 0.46715466120442833 144 238 144 0.5
0.4299652359439723 0.013154932199807868 0.4671464035263868 144 238 144 0.5
0.4299692865738415 0.013153717413707135 0.4671375889622991 144 238 144 0.5
0.42997350584612576 0.013152290494778595 0.4671282203145462 144 238 144 0.5
0.4299778919509222 0.013150651761063774 0.4671183003855086 144 238 144 0.5
0.42998244307832767 0.013148801530604218 0.46710783197756733 144 238 144 0.5
0.42998715741843907 0.013146740121441451 0.46709681789310276 144 238 144 0.5
0.42999203316135354 0.013144467851617015 0.46708526093449587 144 238 144 0.5
0.42999706849716784 0.01314198503917244 0.4670731639041272 144 238 144 0.5
0.43000226161597926 0.013139292002149262 0.4670605296043777 144 238 144 0.5
0.43000761070788457 0.013136389058589014 0.46704736083762793 144 238 144 0.5
0.43001311396298064 0.01313327652653323 0.4670336604062586 144 238 144 0.5
0.4300187695713646 0.013129954724023446 0.4670194311126506 144 238 144 0.5
0.43002457572313324 0.013126423969101202 0.46700467575918453 144 238 144 0.5
0.4300305306083837 0.013122684579808022 0.466989397148241 144 238 144 0.5
0.43003663241721296 0.013118736874185447 0.46697359808220107 144 238 144 0.5
0.4300428793397178 0.013114581170275008 0.46695728136344516 144 238 144 0.5
0.4300492695659953 0.013110217786118247 0.4669404497943542 144 238 144 0.5
0.4300558012861425 0.013105647039756687 0.46692310617730876 144 238 144 0.5
0.43006247269025616 0.013100869249231865 0.4669052533146895 144 238 144 0.5
0.4300692819684334 0.013095884732585323 0.46688689400887745 144 238 144 0.5
0.4300762273107712 0.013090693807858586 0.46686803106225305 144 238 144 0.5
0.4300833069073664 0.0130852967930932 0.4668486672771972 144 238 144 0.5
0.4300905189483162 0.013079694006330689 0.4668288054560906 144 238 144 0.5
0.43009786162371716 0.01307388576561259 0.46680844840131386 144 238 144 0.5
0.43010533312366667 0.013067872388980436 0.46678759891524785 144 238 144 0.5
0.4301129316382614 0.013061654194475766 0.4667662598002732 144 238 144 0.5
0.4301206553575985 0.013055231500140117 0.46674443385877074 144 238 144 0.5
0.4301285024717748 0.01304860462401501 0.46672212389312095 144 238 144 0.5
0.4301364711708874 0.01304177388414199 0.46669933270570474 144 238 144 0.5
0.4301445596450333 0.013034739598562588 0.466676063098903 144 238 144 0.5
0.43015276608430925 0.013027502085318343 0.4666523178750962 144 238 144 0.5
0.43016108867881225 0.013020061662450792 0.4666280998366652 144 238 144 0.5
0.43016952561863936 0.013012418648001454 0.46660341178599046 144 238 144 0.5
0.43017807509388767 0.013004573360011875 0.46657825652545315 144 238 144 0.5
0.4301867352946539 0.012996526116523585 0.46655263685743364 144 238 144 0.5
0.43019550441103505 0.012988277235578119 0.46652655558431283 144 238 144 0.5
0.4302043806331284 0.012979827035217032 0.46650001550847153 144 238 144 0.5
0.43021336215103045 0.012971175833481821 0.46647301943229014 144 238 144 0.5
0.4302224471548384 0.012962323948414041 0.4664455701581496 144 238 144 0.5
0.43023163383464935 0.012953271698055225 0.4664176704884307 144 238 144 0.5
0.43024092038055994 0.012944019400446904 0.4663893232255141 144 238 144 0.5
0.43025030498266736 0.01293456737363063 0.4663605311717804 144 238 144 0.5
0.43025978583106855 0.012924915935647908 0.46633129712961047 144 238 144 0.5
0.4302693611158605 0.01291506540454029 0.466301623901385 144 238 144 0.5
0.4302790290271401 0.012905016098349304 0.4662715142894847 144 238 144 0.5
0.4302887877550043 0.012894768335116491 0.4662409710962904 144 238 144 0.5
0.4302986354895501 0.012884322432883392 0.4662099971241827 144 238 144 0.5
0.43030857042087456 0.012873678709691522 0.4661785951755423 144 238 144 0.5
0.43031859073907447 0.01286283748358242 0.46614676805275 144 238 144 0.5
0.43032869463424694 0.012851799072597628 0.4661145185581866 144 238 144 0.5
0.4303388802964888 0.012840563794778678 0.46608184949423265 144 238 144 0.5
0.4303491459158972 0.012829131968167122 0.46604876366326914 144 238 144 0.5
0.43035948968256893 0.012817503910804457 0.46601526386767644 144 238 144 0.5
0.43036990978660106 0.012805679940732237 0.4659813529098355 144 238 144 0.5
0.4303804044180905 0.012793660375991998 0.465947033592127 144 238 144 0.5
0.43039097176713415 0.012781445534625272 0.4659123087169317 144 238 144 0.5
0.43040161002382915 0.012769035734673612 0.46587718108663034 144 238 144 0.5
0.43041231737827246 0.012756431294178517 0.4658416535036036 144 238 144 0.5
0.43042309202056084 0.01274363253118154 0.46580572877023213 144 238 144 0.5
0.43043393214079134 0.01273063976372421 0.46576940968889674 144 238 144 0.5
0.4304448359290611 0.012717453309848071 0.46573269906197823 144 238 144 0.5
0.43045580157546687 0.012704073487594673 0.4656955996918573 144 238 144 0.5
0.43046682727010566 0.012690500615005504 0.46565811438091453 144 238 144 0.5
0.43047791120307455 0.012676735010122125 0.46562024593153073 144 238 144 0.5
0.43048905156447037 0.012662776990986073 0.4655819971460866 144 238 144 0.5
0.43050024654439023 0.012648626875638879 0.46554337082696307 144 238 144 0.5
0.43051149433293084 0.012634284982122091 0.4655043697765406 144 238 144 0.5
0.4305227931201894 0.012619751628477217 0.4654649967972 144 238 144 0.5
0.43053414109626287 0.0126050271327458 0.465425254691322 144 238 144 0.5
0.43054553645124805 0.01259011181296938 0.46538514626128746 144 238 144 0.5
0.4305569773752421 0.012575005987189492 0.4653446743094769 144 238 144 0.5
0.4305684620583418 0.012559709973447684 0.46530384163827115 144 238 144 0.5
0.4305799886906442 0.012544224089785456 0.4652626510500509 144 238 144 0.5
0.43059155546224626 0.01252854865424436 0.4652211053471968 144 238 144 0.5
0.430603160528819 0.012512684461887188 0.46517920815248676 144 238 144 0.5
0.43061480181636097 0.012496635490193732 0.4651369685619244 144 238 144 0.5
0.4306264771568798 0.012480407019022042 0.4650943979113869 144 238 144 0.5
0.43063818438210094 0.012464004332139334 0.46505150754347446 144 238 144 0.5
0.4306499213237498 0.012447432713312901 0.46500830880078736 144 238 144 0.5
0.43066168581355163 0.012430697446310007 0.46496481302592596 144 238 144 0.5
0.43067347568323205 0.012413803814897921 0.4649210315614905 144 238 144 0.5
0.4306852887645163 0.01239675710284393 0.46487697575008136 144 238 144 0.5
0.43069712288912976 0.012379562593915252 0.4648326569342986 144 238 144 0.5
0.43070897588879803 0.012362225571879184 0.4647880864567428 144 238 144 0.5
0.4307208455952463 0.012344751320502981 0.46474327566001405 144 238 144 0.5
0.43073272984020006 0.012327145123553943 0.4646982358867128 144 238 144 0.5
0.4307446264553846 0.01230941226479928 0.46465297847943904 144 238 144 0.5
0.43075653327252544 0.012291558028006288 0.4646075147807933 144 238 144 0.5
0.430768448123348 0.012273587696942232 0.4645618561333759 144 238 144 0.5
0.43078036883957754 0.012255506555374374 0.46451601387978697 144 238 144 0.5
0.4307922932529396 0.012237319887070013 0.464469999362627 144 238 144 0.5
0.4308042191951595 0.012219032975796362 0.46442382392449605 144 238 144 0.5
0.4308161444979627 0.012200651105320705 0.46437749890799457 144 238 144 0.5
0.4308280669930744 0.012182179559410318 0.4643310356557227 144 238 144 0.5
0.43083998451222033 0.012163623621832464 0.4642844455102809 144 238 144 0.5
0.4308518948871255 0.012144988576354432 0.4642377398142694 144 238 144 0.5
0.4308637959495156 0.012126279706743438 0.4641909299102884 144 238 144 0.5
0.430875685531116 0.012107502296766777 0.46414402714093833 144 238 144 0.5
0.430887561463652 0.012088661630191714 0.46409704284881936 144 238 144 0.5
0.4308994215788491 0.012069762990785512 0.4640499883765318 144 238 144 0.5
0.43091126370843247 0.012050811662315466 0.46400287506667603 144 238 144 0.5
0.4309230856841278 0.01203181292854879 0.4639557142618522 144 238 144 0.5
0.4309348853376602 0.012012772073252773 0.46390851730466065 144 238 144 0.5
0.4309466605007554 0.011993694380194686 0.4638612955377017 144 238 144 0.5
0.4309584090051385 0.01197458513314179 0.4638140603035756 144 238 144 0.5
0.4309701286825351 0.011955449615861383 0.46376682294488286 144 238 144 0.5
0.43098181736467045 0.011936293112120674 0.46371959480422337 144 238 144 0.5
0.43099347288327017 0.011917120905686958 0.4636723872241977 144 238 144 0.5
0.43100509307005935 0.011897938280327501 0.463625211547406 144 238 144 0.5
0.4310166757567635 0.011878750519809569 0.4635780791164485 144 238 144 0.5
0.43102821877510816 0.011859562907900453 0.4635310012739259 144 238 144 0.5
0.4310397199568185 0.011840380728367367 0.46348398936243806 144 238 144 0.5
0.4310511771336202 0.011821209264977607 0.46343705472458535 144 238 144 0.5
0.43106258813723847 0.011802053801498433 0.46339020870296804 144 238 144 0.5
0.43107395079939853 0.011782919621697115 0.46334346264018655 144 238 144 0.5
0.43108526295182625 0.011763812009340947 0.46329682787884124 144 238 144 0.5
0.43109652242624663 0.011744736248197139 0.46325031576153214 144 238 144 0.5
0.4311077270543852 0.011725697622032984 0.46320393763085965 144 238 144 0.5
0.4311188746679674 0.01170670141461575 0.46315770482942414 144 238 144 0.5
0.4311299630987186 0.011687752909712704 0.4631116286998258 144 238 144 0.5
0.4311409901783641 0.011668857391091133 0.463065720584665 144 238 144 0.5
0.43115195373862947 0.011650020142518256 0.4630199918265419 144 238 144 0.5
0.43116285161123996 0.011631246447761362 0.46297445376805685 144 238 144 0.5
0.431173681627921 0.011612541590587722 0.4629291177518101 144 238 144 0.5
0.4311844416203981 0.011593910854764597 0.4628839951204021 144 238 144 0.5
0.43119512942039645 0.011575359524059279 0.46283909721643307 144 238 144 0.5
0.4312057428596417 0.01155689288223899 0.46279443538250326 144 238 144 0.5
0.43121627976985905 0.011538516213071013 0.4627500209612128 144 238 144 0.5
0.4312267379827739 0.011520234800322616 0.4627058652951623 144 238 144 0.5
0.4312371153301118 0.01150205392776107 0.46266197972695167 144 238 144 0.5
0.431247409643598 0.011483978879153662 0.4626183755991816 144 238 144 0.5
0.431257618754958 0.011466014938267608 0.46257506425445216 144 238 144 0.5
0.4312677404959171 0.0114481673888702 0.46253205703536354 144 238 144 0.5
0.4312777726982008 0.011430441514728704 0.46248936528451623 144 238 144 0.5
0.4312877131935344 0.01141284259961039 0.4624470003445105 144 238 144 0.5
0.4312975598136433 0.01139537592728254 0.4624049735579466 144 238 144 0.5
0.43130731039025305 0.01137804678151238 0.4623632962674247 144 238 144 0.5
0.4313169627550889 0.011360860446067194 0.46232197981554524 144 238 144 0.5
0.4313265147398764 0.011343822204714256 0.46228103554490846 144 238 144 0.5
0.43133596417634074 0.011326937341220825 0.46224047479811464 144 238 144 0.5
0.4313453088962074 0.011310211139354192 0.4622003089177641 144 238 144 0.5
0.43135454673120177 0.011293648882881577 0.46216054924645705 144 238 144 0.5
0.4313636755130493 0.01127725585557027 0.46212120712679383 144 238 144 0.5
0.43137269307347526 0.011261037341187538 0.4620822939013747 144 238 144 0.5
0.43138159724420533 0.011244998623500667 0.46204382091280016 144 238 144 0.5
0.4313903858569646 0.011229144986276881 0.4620057995036702 144 238 144 0.5
0.4313990567434786 0.011213481713283468 0.4619682410165851 144 238 144 0.5
0.4314076077354727 0.01119801408828769 0.46193115679414537 144 238 144 0.5
0.43141603666467243 0.01118274739505682 0.4618945581789512 144 238 144 0.5
0.4314243413628029 0.011167686917358144 0.461858456513603 144 238 144 0.5
0.4314325196615898 0.011152837938958882 0.46182286314070076 144 238 144 0.5
0.4314405693927583 0.011138205743626322 0.461787789402845 144 238 144 0.5
0.43144848838803396 0.011123795615127729 0.46175324664263595 144 238 144 0.5
0.43145627447914225 0.011109612837230378 0.46171924620267396 144 238 144 0.5
0.4314639254978082 0.011095662693701543 0.4616857994255592 144 238 144 0.5
0.43147143927575765 0.01108195046830846 0.46165291765389205 144 238 144 0.5
0.43147881364471563 0.011068481444818406 0.4616206122302727 144 238 144 0.5
0.4314860464364078 0.011055260906998656 0.46158889449730156 144 238 144 0.5
0.4314931354825594 0.01104229413861647 0.4615577757975789 144 238 144 0.5
0.431500078614896 0.011029586423439137 0.461527267473705 144 238 144 0.5
0.43150687366514273 0.011017143045233884 0.46149738086827996 144 238 144 0.5
0.4315135184650252 0.011004969287767993 0.46146812732390424 144 238 144 0.5
0.43152001084626884 0.010993070434808737 0.4614395181831783 144 238 144 0.5
0.4315263486405989 0.010981451770123376 0.46141156478870216 144 238 144 0.5
0.43153252967974076 0.010970118577479196 0.46138427848307617 144 238 144 0.5
0.43153855179542 0.010959076140643426 0.46135767060890065 144 238 144 0.5
0.4315444128193618 0.010948329743383355 0.4613317525087759 144 238 144 0.5
0.4315501105832918 0.010937884669466241 0.4613065355253021 144 238 144 0.5
0.43155564291893517 0.01092774620265936 0.4612820310010797 144 238 144 0.5
0.4315610076580174 0.010917919626729986 0.46125825027870904 144 238 144 0.5
0.4315662026322639 0.010908410225445357 0.46123520470079005 144 238 144 0.5
0.43157122567340006 0.010899223282572753 0.46121290560992334 144 238 144 0.5
0.4315760746131513 0.01089036408187944 0.46119136434870905 144 238 144 0.5
0.43158074728324297 0.010881837907132692 0.46117059225974766 144 238 144 0.5
0.43158524152077404 0.010873650031734917 0.46115060066105074 144 238 144 0.5
0.4315895569530616 0.010865802275999339 0.46113139267886577 144 238 144 0.5
0.43159369758189736 0.010858288022467816 0.4611129514225131 144 238 144 0.5
0.43159766806477545 0.01085109938892141 0.4610952570009212 144 238 144 0.5
0.4316014730591894 0.010844228493141178 0.46107828952301777 144 238 144 0.5
0.4316051172226331 0.01083766745290818 0.461062029097731 144 238 144 0.5
0.4316086052126007 0.010831408386003463 0.4610464558339891 144 238 144 0.5
0.43161194168658584 0.010825443410208085 0.4610315498407201 144 238 144 0.5
0.43161513130208246 0.010819764643303106 0.4610172912268521 144 238 144 0.5
0.4316181787165842 0.010814364203069582 0.4610036601013132 144 238 144 0.5
0.4316210885875853 0.010809234207288581 0.46099063657303163 144 238 144 0.5
0.43162386557257926 0.010804366773741136 0.46097820075093515 144 238 144 0.5
0.4316265143290603 0.010799754020208323 0.46096633274395216 144 238 144 0.5
0.43162903951452186 0.010795388064471185 0.4609550126610105 144 238 144 0.5
0.4316314457864583 0.010791261024310791 0.4609442206110386 144 238 144 0.5
0.431633737802363 0.0107873650175082 0.46093393670296445 144 238 144 0.5
0.4316359202197302 0.01078369216184445 0.46092414104571594 144 238 144 0.5
0.4316379976960535 0.01078023457510061 0.46091481374822135 144 238 144 0.5
0.4316399748888267 0.010776984375057736 0.46090593491940873 144 238 144 0.5
0.4316418564555441 0.010773933679496887 0.46089748466820624 144 238 144 0.5
0.43164364705369906 0.010771074606199119 0.46088944310354185 144 238 144 0.5
0.43164535134078574 0.010768399272945482 0.46088179033434384 144 238 144 0.5
0.431646973974298 0.01076589979751704 0.4608745064695401 144 238 144 0.5
0.43164851961172945 0.01076356829769484 0.4608675716180588 144 238 144 0.5
0.4316499929105742 0.010761396891259952 0.4608609658888282 144 238 144 0.5
0.43165139852832607 0.010759377695993428 0.4608546693907763 144 238 144 0.5
0.43165274112247887 0.01075750282967632 0.46084866223283094 144 238 144 0.5
0.43165402535052644 0.010755764410089685 0.46084292452392056 144 238 144 0.5
0.43165525586996284 0.010754154555014587 0.46083743637297314 144 238 144 0.5
0.4316564373382815 0.010752665382232074 0.46083217788891667 144 238 144 0.5
0.4316575744129767 0.010751289009523208 0.4608271291806795 144 238 144 0.5
0.43165867175154227 0.010750017554669046 0.4608222703571896 144 238 144 0.5
0.43165973401147173 0.01074884313545064 0.4608175815273748 144 238 144 0.5
0.43166076585025925 0.01074775786964905 0.46081304280016366 144 238 144 0.5
0.4316617719253986 0.010746753875045334 0.46080863428448404 144 238 144 0.5
0.43166275689438366 0.010745823269420546 0.4608043360892639 144 238 144 0.5
0.43166372541470827 0.010744958170555744 0.4608001283234317 144 238 144 0.5
0.43166468214386644 0.010744150696231986 0.4607959910959153 144 238 144 0.5
0.43166563173935163 0.010743392964230322 0.46079190451564267 144 238 144 0.5
0.4316665788586581 0.010742677092331818 0.46078784869154216 144 238 144 0.5
0.4316675281592795 0.010741995198317525 0.4607838037325418 144 238 144 0.5
0.43166848429870985 0.0107413393999685 0.46077974974756963 144 238 144 0.5
0.431669451934443 0.010740701815065801 0.46077566684555393 144 238 144 0.5
0.4316704357239726 0.010740074561390487 0.4607715351354225 144 238 144 0.5
0.4316714403247927 0.010739449756723609 0.4607673347261036 144 238 144 0.5
0.43167247039439716 0.010738819518846228 0.4607630457265254 144 238 144 0.5
0.4316735305902797 0.010738175965539398 0.4607586482456158 144 238 144 0.5
0.43167462556993436 0.010737511214584178 0.46075412239230307 144 238 144 0.5
0.43167575999085483 0.010736817383761622 0.46074944827551517 144 238 144 0.5
0.43167693851053507 0.010736086590852791 0.4607446060041804 144 238 144 0.5
0.4316781657864689 0.010735310953638737 0.46073957568722657 144 238 144 0.5
0.43167944647615025 0.01073448258990052 0.460734337433582 144 238 144 0.5
0.43168078523707304 0.010733593617419195 0.46072887135217483 144 238 144 0.5
0.43168218672673087 0.010732636153975818 0.460723157551933 144 238 144 0.5
0.43168365560261784 0.01073160231735145 0.46071717614178465 144 238 144 0.5
0.43168519652222775 0.010730484225327143 0.4607109072306579 144 238 144 0.5
0.43168681414305443 0.010729273995683956 0.46070433092748087 144 238 144 0.5
0.4316885131225917 0.010727963746202942 0.4606974273411815 144 238 144 0.5
0.4316902981183335 0.01072654559466516 0.46069017658068817 144 238 144 0.5
0.4316921737877737 0.01072501165885167 0.4606825587549287 144 238 144 0.5
0.43169414478840606 0.010723354056543523 0.4606745539728313 144 238 144 0.5
0.43169621577772466 0.010721564905521782 0.4606661423433242 144 238 144 0.5
0.4316983914132231 0.010719636323567497 0.46065730397533533 144 238 144 0.5
0.4317006763523953 0.010717560428461727 0.4606480189777928 144 238 144 0.5
0.4317030752527354 0.010715329337985535 0.4606382674596248 144 238 144 0.5
0.43170559277173687 0.01071293516991997 0.46062802952975934 144 238 144 0.5
0.4317082335668938 0.010710370042046087 0.4606172852971245 144 238 144 0.5
0.43171100229569986 0.010707626072144948 0.46060601487064845 144 238 144 0.5
0.4317139036156491 0.010704695377997609 0.4605941983592592 144 238 144 0.5
0.4317169421842354 0.01070157007738513 0.460581815871885 144 238 144 0.5
0.4317201226589525 0.010698242288088557 0.46056884751745375 144 238 144 0.5
0.43172344969729426 0.010694704127888954 0.4605552734048937 144 238 144 0.5
0.4317269279567546 0.010690947714567378 0.4605410736431329 144 238 144 0.5
0.43173056209482746 0.010686965165904885 0.46052622834109946 144 238 144 0.5
0.43173435676900646 0.010682748599682535 0.46051071760772144 144 238 144 0.5
0.4317383166367857 0.010678290133681377 0.46049452155192705 144 238 144 0.5
0.4317424463556589 0.010673581885682468 0.4604776202826442 144 238 144 0.5
0.43174675058312006 0.010668615973466872 0.46045999390880116 144 238 144 0.5
0.4317512339766629 0.01066338451481564 0.46044162253932597 144 238 144 0.5
0.4317559011937813 0.010657879627509838 0.46042248628314664 144 238 144 0.5
0.4317607568919693 0.010652093429330508 0.46040256524919143 144 238 144 0.5
0.4317658057287205 0.010646018038058714 0.4603818395463883 144 238 144 0.5
0.43177105236152885 0.010639645571475512 0.4603602892836653 144 238 144 0.5
0.4317765014478883 0.010632968147361962 0.46033789456995067 144 238 144 0.5
0.4317821576452927 0.010625977883499126 0.4603146355141726 144 238 144 0.5
0.43178802561123575 0.01061866689766804 0.4602904922252589 144 238 144 0.5
0.4317941100032114 0.010611027307649774 0.4602654448121378 144 238 144 0.5
0.4318004154787136 0.010603051231225385 0.46023947338373744 144 238 144 0.5
0.43180694669523617 0.01059473078617593 0.460212558048986 144 238 144 0.5
0.431813708310273 0.010586058090282477 0.46018467891681136 144 238 144 0.5
0.4318207049813179 0.010577025261326057 0.46015581609614176 144 238 144 0.5
0.4318279413658646 0.010567624417087737 0.46012594969590537 144 238 144 0.5
0.43183542212140713 0.010557847675348576 0.46009505982503 144 238 144 0.5
0.4318431519054393 0.010547687153889632 0.46006312659244397 144 238 144 0.5
0.43185113537545505 0.010537134970491977 0.4600301301070754 144 238 144 0.5
0.4318593771889482 0.010526183242936636 0.4599960504778523 144 238 144 0.5
0.4318678820034126 0.010514824089004681 0.4599608678137028 144 238 144 0.5
0.43187665447634194 0.010503049626477166 0.45992456222355493 144 238 144 0.5
0.43188569926523035 0.01049085197313517 0.459887113816337 144 238 144 0.5
0.43189502102757155 0.010478223246759712 0.45984850270097677 144 238 144 0.5
0.43190462442085953 0.010465155565131867 0.4598087089864027 144 238 144 0.5
0.4319145139700997 0.010451641303511549 0.4597677134759981 144 238 144 0.5
0.431924691200552 0.010437678666891296 0.45972551269672784 144 238 144 0.5
0.4319351546638759 0.010423271639185319 0.4596821187620944 144 238 144 0.5
0.4319459027844717 0.010408424451624177 0.4596375444526456 144 238 144 0.5
0.4319569339867394 0.010393141335438484 0.45959180254892956 144 238 144 0.5
0.4319682466950798 0.010377426521858845 0.4595449058314945 144 238 144 0.5
0.43197983933389306 0.010361284242115852 0.45949686708088844 144 238 144 0.5
0.4319917103275793 0.010344718727440133 0.45944769907765964 144 238 144 0.5
0.4320038581005392 0.010327734209062238 0.45939741460235595 144 238 144 0.5
0.4320162810771727 0.010310334918212786 0.4593460264355256 144 238 144 0.5
0.4320289776818803 0.010292525086122379 0.4592935473577168 144 238 144 0.5
0.4320419463390625 0.010274308944021615 0.45923999014947764 144 238 144 0.5
0.4320551854731192 0.010255690723141118 0.45918536759135625 144 238 144 0.5
0.43206869350845106 0.010236674654711434 0.4591296924639005 144 238 144 0.5
0.4320824688694583 0.010217264969963185 0.4590729775476587 144 238 144 0.5
0.43209650998054117 0.010197465900126977 0.45901523562317886 144 238 144 0.5
0.43211081526610007 0.010177281676433402 0.4589564794710092 144 238 144 0.5
0.4321253831505353 0.010156716530113092 0.4588967218716979 144 238 144 0.5
0.43214021205824715 0.010135774692396583 0.4588359756057928 144 238 144 0.5
0.43215530041363603 0.010114460394514507 0.4587742534538423 144 238 144 0.5
0.4321706466411021 0.01009277786769746 0.4587115681963942 144 238 144 0.5
0.43218624916504594 0.01007073134317604 0.45864793261399683 144 238 144 0.5
0.4322021064098676 0.010048325052180881 0.45858335948719836 144 238 144 0.5
0.43221821679996747 0.010025563225942514 0.4585178615965466 144 238 144 0.5
0.43223457875974597 0.010002450095691572 0.45845145172258994 144 238 144 0.5
0.4322511907136033 0.00997898989265865 0.45838414264587635 144 238 144 0.5
0.4322680510859399 0.009955186848074353 0.458315947146954 144 238 144 0.5
0.43228515830115605 0.00993104519316931 0.4582468780063712 144 238 144 0.5
0.43230251078365195 0.00990656915917405 0.4581769480046756 144 238 144 0.5
0.43232010695782813 0.009881762977319205 0.45810616992241565 144 238 144 0.5
0.43233794524808467 0.00985663087883538 0.4580345565401392 144 238 144 0.5
0.4323560240788222 0.009831177094953165 0.4579621206383946 144 238 144 0.5
0.4323743418744407 0.0098054058569032 0.45788887499772996 144 238 144 0.5
0.4323928970593406 0.009779321395916012 0.4578148323986933 144 238 144 0.5
0.43241168805792235 0.009752927943222234 0.45774000562183276 144 238 144 0.5
0.43243071329458627 0.009726229730052462 0.4576644074476962 144 238 144 0.5
0.43244997119373246 0.0096992309876373 0.45758805065683217 144 238 144 0.5
0.4324694601797614 0.009671935947207382 0.45751094802978864 144 238 144 0.5
0.4324891786770734 0.009644348839993228 0.45743311234711337 144 238 144 0.5
0.4325091251100688 0.009616473897225477 0.4573545563893549 144 238 144 0.5
0.43252929790314787 0.009588315350134729 0.45727529293706115 144 238 144 0.5
0.43254969548071076 0.009559877429951577 0.45719533477078017 144 238 144 0.5
0.43257031626715825 0.00953116436790667 0.45711469467106053 144 238 144 0.5
0.43259115868689024 0.009502180395230516 0.4570333854184496 144 238 144 0.5
0.4326122211643072 0.009472929743153759 0.45695141979349596 144 238 144 0.5
0.43263350212380947 0.009443416642906995 0.45686881057674755 144 238 144 0.5
0.43265499998979734 0.009413645325720829 0.45678557054875263 144 238 144 0.5
0.43267671318667106 0.009383620022825891 0.45670171249005936 144 238 144 0.5
0.4326986401388311 0.009353344965452707 0.45661724918121555 144 238 144 0.5
0.4327207792706777 0.009322824384831908 0.45653219340276946 144 238 144 0.5
0.43274312900661116 0.009292062512194096 0.4564465579352693 144 238 144 0.5
0.43276568777103175 0.009261063578769872 0.45636035555926296 144 238 144 0.5
0.43278845398834 0.009229831815789874 0.4562735990552989 144 238 144 0.5
0.43281142608293593 0.009198371454484617 0.45618630120392484 144 238 144 0.5
0.4328346024792201 0.009166686726084743 0.4560984747856891 144 238 144 0.5
0.4328579816015929 0.00913478186182085 0.45601013258113987 144 238 144 0.5
0.4328815618744543 0.009102661092923533 0.4559212873708249 144 238 144 0.5
0.4329053417222048 0.009070328650623438 0.45583195193529275 144 238 144 0.5
0.43292931956924474 0.009037788766151076 0.4557421390550912 144 238 144 0.5
0.4329534938399746 0.00900504567073709 0.45565186151076853 144 238 144 0.5
0.43297786295879437 0.008972103595612074 0.45556113208287274 144 238 144 0.5
0.4330024253501046 0.008938966772006634 0.4554699635519519 144 238 144 0.5
0.43302717943830565 0.00890563943115141 0.4553783686985545 144 238 144 0.5
0.4330521236477976 0.008872125804276905 0.4552863603032282 144 238 144 0.5
0.43307725640298095 0.008838430122613773 0.45519395114652134 144 238 144 0.5
0.43310257612825603 0.008804556617392604 0.4551011540089818 144 238 144 0.5
0.433128081248023 0.008770509519844049 0.4550079816711581 144 238 144 0.5
0.4331537701866823 0.008736293061198608 0.45491444691359795 144 238 144 0.5
0.4331796413686343 0.008701911472686933 0.45482056251684966 144 238 144 0.5
0.4332056932182792 0.008667368985539613 0.4547263412614612 144 238 144 0.5
0.4332319241600174 0.008632669830987256 0.4546317959279808 144 238 144 0.5
0.4332583326182492 0.008597818240260506 0.45453693929695665 144 238 144 0.5
0.4332849170173748 0.008562818444589861 0.4544417841489366 144 238 144 0.5
0.4333116757817948 0.008527674675205975 0.45434634326446893 144 238 144 0.5
0.43333860733590934 0.008492391163339438 0.4542506294241018 144 238 144 0.5
0.4333657101041186 0.008456972140220856 0.4541546554083831 144 238 144 0.5
0.4333929825108232 0.008421421837080875 0.4540584339978614 144 238 144 0.5
0.43342042298042327 0.008385744485149994 0.45396197797308424 144 238 144 0.5
0.43344802993731923 0.00834994431565886 0.4538653001146 144 238 144 0.5
0.4334758018059113 0.008314025559838073 0.4537684132029568 144 238 144 0.5
0.43350373701059974 0.008277992448918229 0.45367133001870263 144 238 144 0.5
0.4335318339757851 0.008241849214129982 0.453574063342386 144 238 144 0.5
0.4335600911258676 0.008205600086703827 0.4534766259545545 144 238 144 0.5
0.4335885068852474 0.00816924929787041 0.45337903063575635 144 238 144 0.5
0.43361707967832497 0.008132801078860335 0.4532812901665398 144 238 144 0.5
0.43364580792950064 0.008096259660904197 0.45318341732745293 144 238 144 0.5
0.4336746900631747 0.008059629275232648 0.453085424899044 144 238 144 0.5
0.4337037245037476 0.008022914153076184 0.45298732566186084 144 238 144 0.5
0.4337329096756194 0.007986118525665453 0.4528891323964516 144 238 144 0.5
0.43376224400319047 0.007949246624231052 0.4527908578833645 144 238 144 0.5
0.43379172591086135 0.007912302680003584 0.45269251490314766 144 238 144 0.5
0.43382135382303216 0.0078752909242137 0.45259411623634926 144 238 144 0.5
0.4338511261641033 0.00783821558809189 0.4524956746635171 144 238 144 0.5
0.433881041358475 0.007801080902868807 0.4523972029651994 144 238 144 0.5
0.43391109783054777 0.007763891099775051 0.4522987139219446 144 238 144 0.5
0.4339412940047217 0.007726650410041215 0.45220022031430035 144 238 144 0.5
0.4339716283053972 0.007689363064897959 0.45210173492281525 144 238 144 0.5
0.43400209915697463 0.007652033295575769 0.45200327052803685 144 238 144 0.5
0.43403270498385443 0.007614665333305301 0.45190483991051367 144 238 144 0.5
0.4340634442104366 0.007577263409317149 0.45180645585079354 144 238 144 0.5
0.43409431526112174 0.007539831754841914 0.4517081311294249 144 238 144 0.5
0.4341253162510011 0.007502374393595394 0.45160987725959284 144 238 144 0.5
0.4341564432746788 0.007464893993751834 0.4515116974757366 144 238 144 0.5
0.43418769161554066 0.007427392679240674 0.451413591688409 144 238 144 0.5
0.4342190565547835 0.0073898725725225324 0.4513155597991927 144 238 144 0.5
0.43425053337360375 0.007352335796058029 0.4512176017096699 144 238 144 0.5
0.43428211735319805 0.007314784472307833 0.45111971732142353 144 238 144 0.5
0.4343138037747631 0.007277220723732457 0.45102190653603574 144 238 144 0.5
0.4343455879194954 0.007239646672792574 0.4509241692550891 144 238 144 0.5
0.43437746506859154 0.007202064441948799 0.4508265053801661 144 238 144 0.5
0.4344094305032482 0.007164476153661755 0.4507289148128494 144 238 144 0.5
0.43444147950466194 0.00712688393039211 0.45063139745472136 144 238 144 0.5
0.43447360735402923 0.007089289894600374 0.4505339532073644 144 238 144 0.5
0.4345058093325471 0.007051696168747226 0.45043658197236125 144 238 144 0.5
0.4345380807214118 0.007014104875293277 0.4503392836512942 144 238 144 0.5
0.43457041680182 0.006976518136699149 0.4502420581457459 144 238 144 0.5
0.43460281285496827 0.006938938075425513 0.45014490535729884 144 238 144 0.5
0.43463526416205334 0.006901366813932883 0.4500478251875355 144 238 144 0.5
0.4346677660042717 0.006863806474681923 0.44995081753803823 144 238 144 0.5
0.43470031366282 0.0068262591801332585 0.44985388231038964 144 238 144 0.5
0.43473290241889495 0.0067887270527475065 0.44975701940617235 144 238 144 0.5
0.434765527553693 0.00675121221498534 0.4496602287269688 144 238 144 0.5
0.43479818434841083 0.006713716789307266 0.4495635101743615 144 238 144 0.5
0.434830868084245 0.0066762428981739595 0.4494668636499327 144 238 144 0.5
0.4348635740423922 0.006638792664046036 0.44937028905526516 144 238 144 0.5
0.43489629750404885 0.006601368209384173 0.4492737862919416 144 238 144 0.5
0.4349290337504118 0.006563971656648875 0.44917735526154384 144 238 144 0.5
0.43496177806267755 0.006526605128300818 0.449080995865655 144 238 144 0.5
0.4349945257220428 0.0064892707468006215 0.4489847080058572 144 238 144 0.5
0.43502727200970387 0.0064519706346089 0.4488884915837333 144 238 144 0.5
0.43506001220685764 0.006414706914186329 0.4487923465008657 144 238 144 0.5
0.4350927415947006 0.0063774817079934164 0.44869627265883666 144 238 144 0.5
0.4351254554544295 0.006340297138490836 0.4486002699592289 144 238 144 0.5
0.4351581490672408 0.006303155328139207 0.44850433830362485 144 238 144 0.5
0.435190817714331 0.006266058399399144 0.44840847759360686 144 238 144 0.5
0.43522345667689694 0.006229008474731323 0.4483126877307579 144 238 144 0.5
0.43525606123613525 0.006192007676596254 0.44821696861666005 144 238 144 0.5
0.4352886266732422 0.006155058127454606 0.44812132015289563 144 238 144 0.5
0.43532114826941476 0.006118161949767003 0.4480257422410477 144 238 144 0.5
0.4353536213058495 0.006081321265994059 0.4479302347826985 144 238 144 0.5
0.4353860410637427 0.006044538198596445 0.4478347976794306 144 238 144 0.5
0.4354184028242913 0.006007814870034677 0.44773943083282636 144 238 144 0.5
0.4354507018686917 0.005971153402769424 0.44764413414446824 144 238 144 0.5
0.4354829334781407 0.005934555919261304 0.44754890751593895 144 238 144 0.5
0.43551509293383484 0.005898024541970937 0.44745375084882083 144 238 144 0.5
0.43554717551697053 0.005861561393358991 0.4473586640446966 144 238 144 0.5
0.4355791765087446 0.005825168595885981 0.4472636470051484 144 238 144 0.5
0.43561109119035374 0.0057888482720125775 0.4471686996317591 144 238 144 0.5
0.43564291484299433 0.005752602544199401 0.44707382182611094 144 238 144 0.5
0.43567464274786294 0.005716433534907067 0.4469790134897865 144 238 144 0.5
0.4357062701861563 0.0056803433665962464 0.4468842745243685 144 238 144 0.5
0.4357377924390711 0.005644334161727454 0.44678960483143915 144 238 144 0.5
0.4357692047878039 0.005608408042761361 0.4466950043125809 144 238 144 0.5
0.43580050251355124 0.005572567132158585 0.4466004728693765 144 238 144 0.5
0.4358316808975097 0.005536813552379744 0.44650601040340826 144 238 144 0.5
0.435862735220876 0.005501149425885508 0.446411616816259 144 238 144 0.5
0.4358936607648466 0.005465576875136392 0.4463172920095108 144 238 144 0.5
0.43592445281061815 0.005430098022593065 0.44622303588474643 144 238 144 0.5
0.4359551066393874 0.005394714990716149 0.4461288483435482 144 238 144 0.5
0.4359856175323508 0.005359429901966259 0.4460347292874989 144 238 144 0.5
0.4360159807707051 0.005324244878804065 0.4459406786181809 144 238 144 0.5
0.4360461916356466 0.005289162043690082 0.4458466962371764 144 238 144 0.5
0.4360762454083724 0.005254183519084984 0.44575278204606833 144 238 144 0.5
0.43610613737007864 0.005219311427449385 0.44565893594643896 144 238 144 0.5
0.4361358628019622 0.005184547891243904 0.44556515783987083 144 238 144 0.5
0.43616541698521955 0.00514989503292921 0.4454714476279466 144 238 144 0.5
0.43619479520104726 0.00511535497496582 0.4453778052122485 144 238 144 0.5
0.43622399273064216 0.005080929839814405 0.4452842304943592 144 238 144 0.5
0.4362530048552007 0.005046621749935583 0.44519072337586124 144 238 144 0.5
0.43628182685591954 0.005012432827789969 0.44509728375833685 144 238 144 0.5
0.43631045401399504 0.004978365195838233 0.445003911543369 144 238 144 0.5
0.43633888161062423 0.004944420976540896 0.44491060663253984 144 238 144 0.5
0.4363671049270035 0.004910602292358624 0.44481736892743184 144 238 144 0.5
0.4363951192443293 0.004876911265752035 0.4447241983296276 144 238 144 0.5
0.43642291984379855 0.004843350019181749 0.4446310947407099 144 238 144 0.5
0.43645050200660757 0.004809920675108431 0.4445380580622608 144 238 144 0.5
0.4364778610139532 0.004776625355992601 0.4444450881958629 144 238 144 0.5
0.436504992147032 0.004743466184294931 0.44435218504309887 144 238 144 0.5
0.4365318906870404 0.004710445282476035 0.4442593485055511 144 238 144 0.5
0.4365585519151752 0.0046775647729965335 0.4441665784848022 144 238 144 0.5
0.43658497111263284 0.004644826778317088 0.44407387488243444 144 238 144 0.5
0.43661114356061015 0.004612233420898229 0.4439812376000306 144 238 144 0.5
0.4366370645403035 0.004579786823200617 0.44388866653917297 144 238 144 0.5
0.43666272933290967 0.004547489107684872 0.4437961616014441 144 238 144 0.5
0.4366881332196253 0.004515342396811614 0.44370372268842667 144 238 144 0.5
0.4367132714816466 0.004483348813041503 0.44361134970170296 144 238 144 0.5
0.4367381394001707 0.004451510478835069 0.44351904254285546 144 238 144 0.5
0.4367627322563939 0.004419829516652976 0.4434268011134668 144 238 144 0.5
0.4367870453315129 0.004388308048955841 0.4433346253151194 144 238 144 0.5
0.4368110739067243 0.004356948198204282 0.4432425150493958 144 238 144 0.5
0.4368348132632247 0.004325752086858964 0.4431504702178787 144 238 144 0.5
0.43685825868221073 0.004294721837380415 0.4430584907221502 144 238 144 0.5
0.43688140544487897 0.004263859572229297 0.44296657646379306 144 238 144 0.5
0.43690424883242596 0.00423316741386623 0.44287472734438965 144 238 144 0.5
0.4369267841260484 0.004202647484751875 0.44278294326552275 144 238 144 0.5
0.4369490066069429 0.004172301907346764 0.4426912241287745 144 238 144 0.5
0.43697091155630596 0.004142132804111557 0.4425995698357275 144 238 144 0.5
0.4369924942553344 0.004112142297506874 0.4425079802879644 144 238 144 0.5
0.4370137499852246 0.004082332509993333 0.44241645538706753 144 238 144 0.5
0.43703467402717333 0.004052705564031596 0.44232499503461975 144 238 144 0.5
0.43705526166237696 0.004023263582082193 0.442233599132203 144 238 144 0.5
0.43707550818184093 0.0039940086825087815 0.44214226758404 144 238 144 0.5
0.43709541182824324 0.003964941750780144 0.44205100108877743 144 238 144 0.5
0.43711497792069176 0.003936060716585437 0.44195980224963893 144 238 144 0.5
0.43713421281678855 0.0039073630758414005 0.44186867394935225 144 238 144 0.5
0.43715312287413605 0.0038788463244646557 0.4417776190706449 144 238 144 0.5
0.43717171445033637 0.003850507958371946 0.4416866404962449 144 238 144 0.5
0.4371899939029921 0.003822345473479972 0.44159574110887995 144 238 144 0.5
0.43720796758970515 0.003794356365705435 0.44150492379127787 144 238 144 0.5
0.43722564186807794 0.003766538130965079 0.4414141914261667 144 238 144 0.5
0.43724302309571267 0.003738888265175524 0.4413235468962739 144 238 144 0.5
0.43726011763021166 0.003711404264253513 0.4412329930843273 144 238 144 0.5
0.4372769318291771 0.003684083624115747 0.44114253287305466 144 238 144 0.5
0.43729347205021135 0.003656923840678927 0.44105216914518397 144 238 144 0.5
0.4373097446509166 0.0036299224098597952 0.440961904783443 144 238 144 0.5
0.4373257559888951 0.0036030768275749758 0.4408717426705593 144 238 144 0.5
0.4373415124217492 0.0035763845897412087 0.44078168568926074 144 238 144 0.5
0.437357020307081 0.003549843192275195 0.44069173672227524 144 238 144 0.5
0.437372286002493 0.0035234501310936386 0.44060189865233046 144 238 144 0.5
0.43738731586558716 0.003497202902113276 0.4405121743621543 144 238 144 0.5
0.4374021162539659 0.0034710990012507366 0.44042256673447444 144 238 144 0.5
0.4374166935252316 0.0034451359244227586 0.4403330786520187 144 238 144 0.5
0.43743105403698623 0.003419311167546043 0.4402437129975148 144 238 144 0.5
0.4374452041468323 0.0033936222265372926 0.4401544726536907 144 238 144 0.5
0.43745915021237197 0.003368066597313246 0.4400653605032741 144 238 144 0.5
0.4374728985912076 0.0033426417757905316 0.4399763794289928 144 238 144 0.5
0.4374864556409413 0.0033173452578858873 0.43988753231357447 144 238 144 0.5
0.4374998277191754 0.0032921745395160158 0.4397988220397471 144 238 144 0.5
0.43751302118351215 0.0032671271165976177 0.4397102514902383 144 238 144 0.5
