ply
format ascii 1.0
element vertex 1649
property float x
property float y
property float z
end_header
-0.973222 -0.331214 0.353537
-1.087579 -0.320521 0.720437
-0.762378 -0.018435 0.187641
-0.223349 0.032763 0.255745
-0.520898 -0.024740 0.391037
-0.058979 0.026373 0.205333
-0.170685 -0.000186 0.298229
-0.022803 0.004767 0.170221
-0.028538 0.025856 0.128477
-0.234907 0.036400 0.141167
-0.258188 0.003784 0.231423
-0.015303 0.026219 0.106630
-0.037918 0.027104 0.101079
-0.188516 -0.066131 0.153379
-0.212596 0.015369 0.156594
-0.150226 0.028636 0.179883
0.007515 0.025179 0.113414
-0.338466 0.030961 0.294957
-0.060365 0.015963 0.208620
-0.046981 0.029531 0.060722
-0.208417 -0.066298 0.148653
-0.107190 0.047976 0.155171
-0.284778 0.077957 0.155609
-0.382811 0.016808 0.892865
-0.689954 -0.177135 0.439834
-0.349919 -0.114732 0.219807
-0.080102 -0.056315 0.248426
-0.018019 0.027182 0.109165
-0.668550 -0.277025 0.514864
-0.675647 -0.256901 0.599257
-0.768495 -0.138551 0.461779
-0.721680 -0.206541 0.566144
-0.357088 0.032003 0.745456
-0.022119 0.027721 0.086896
-0.272865 0.045518 0.303279
-1.144935 -0.500151 0.849376
-0.747554 -0.211281 0.586164
-0.438612 -0.005893 0.287347
-0.044061 0.028897 0.177307
-0.082493 0.004210 0.507030
-0.903925 -0.361492 0.605327
-0.175599 -0.000819 0.294589
-0.857234 -0.248059 0.174077
0.177323 0.253305 1.113292
0.234368 0.311984 1.837963
-0.176140 0.030761 0.220902
-0.049563 0.031978 0.156333
-0.002456 0.026633 0.237386
-0.150937 -0.045431 0.296454
-0.022019 0.005870 0.183793
-0.041542 0.022121 0.215122
-0.182364 -0.073812 0.144196
-0.061375 -0.003634 0.230902
-0.023781 0.030206 0.068431
-0.021246 0.027435 0.086877
0.006586 0.025997 0.073727
-0.776639 -0.233509 0.531704
0.018474 0.035005 0.089480
-0.082992 0.020196 0.262358
-0.074145 0.030636 0.229417
-0.028162 0.023924 0.177666
-0.735018 -0.199369 0.294449
-0.073333 -0.030683 0.216969
-1.035397 -0.238550 0.705129
-0.045771 0.029609 0.179451
-0.432085 0.003650 0.414690
-0.016824 0.021110 0.161730
-0.028843 0.025628 0.128137
-0.076169 -0.038268 0.375534
-0.023869 0.027889 0.165308
-0.036806 0.015486 0.126664
-0.086778 0.027562 0.167679
-0.206526 -0.091391 0.408550
-0.170563 0.016037 0.416258
-0.030626 0.032298 0.175682
-0.056838 0.031326 0.155278
-0.052232 0.032895 0.147796
-0.066422 0.022205 0.160471
-0.062824 0.029733 0.165954
-0.066815 0.022647 0.153997
0.004000 0.040603 0.258803
-0.419524 -0.152997 0.608032
-0.256421 -0.083854 0.186665
-0.321947 0.065174 0.205289
-0.386148 0.032786 0.347914
-0.061693 0.029349 0.170435
-0.221902 -0.116790 0.369456
-0.059541 0.021447 0.130309
-0.235648 0.035093 0.178899
-0.686578 -0.237350 0.550186
-0.332302 -0.057772 0.383825
-0.623851 -0.224871 0.619362
-0.278547 0.025570 0.304617
-0.649403 -0.244258 0.592079
-0.498701 0.041220 0.385942
-0.326085 -0.144584 0.767724
-0.051206 0.034138 0.137132
-0.392952 -0.072094 0.532886
-0.363747 0.035151 0.259577
-0.235378 -0.010716 0.321966
-0.710119 -0.270667 0.655343
-0.230273 -0.145201 0.693908
-0.037663 0.025504 0.137365
-0.161947 0.014502 0.168707
-0.195054 -0.056752 0.323813
-0.060845 0.020425 0.163302
-0.279727 0.056563 0.219525
-0.731415 0.064621 0.521118
-0.046233 0.030517 0.153560
-0.062990 0.027667 0.210673
-0.844891 -0.046046 0.147181
-0.461706 -0.021181 0.337493
-0.264179 -0.082334 0.703354
-0.375965 -0.054749 0.237354
-0.046832 0.015775 0.130042
-0.471715 -0.116865 0.309980
-0.041613 0.026693 0.129253
-0.282200 -0.048740 0.346902
-0.186190 0.031137 0.261059
0.230336 0.030730 0.170081
-0.073079 -0.057078 0.240678
-0.004956 0.022420 0.163648
-0.272952 -0.006263 0.193791
-0.553937 -0.280409 0.613554
-0.061075 0.020088 0.171644
-0.250526 0.022859 0.246642
-0.244125 -0.018885 0.369223
-0.037450 0.026907 0.100858
-0.139499 -0.054101 0.281438
-1.036856 -0.010882 0.352758
-0.138496 0.029635 0.141601
-0.142429 0.048299 0.197030
-0.220032 -0.033717 0.175767
-0.145157 0.030283 0.143684
-0.767423 -0.268198 0.361650
-0.555629 -0.081927 0.504278
-0.034314 0.029097 0.071299
-0.140281 0.029273 0.161347
-0.028799 0.001599 0.077847
-0.176287 0.037449 0.374856
-0.462919 -0.060475 0.380746
-0.658787 -0.004476 0.385080
-0.081969 0.042800 0.175365
-0.243427 -0.084610 0.142927
-0.026826 0.026230 0.116154
-0.005680 0.028162 0.151218
-0.622788 -0.211606 0.396797
-0.059653 0.032787 0.144913
-0.051530 0.017698 0.109941
-0.015607 0.026649 0.107449
-0.063257 0.029930 0.166223
-0.395202 0.000147 0.352552
-0.311675 -0.094239 0.389741
-0.053913 0.028844 0.181251
-0.065575 0.021713 0.164723
-0.017103 0.037017 0.202495
-0.035294 0.031268 0.162747
-0.201646 0.024942 0.325062
0.194876 0.087758 0.559218
0.020807 0.093385 0.427523
-0.228766 0.046788 0.196937
-0.275530 -0.065706 0.321261
-0.127313 -0.092522 0.551623
-0.056178 0.030023 0.171298
-0.061745 0.026571 0.239789
0.027017 0.062349 0.406804
-0.472259 0.017323 0.668080
-0.091654 -0.052313 0.398367
-0.228073 0.013622 0.527195
-0.119724 0.007255 0.257334
-0.367520 -0.098110 0.440094
-0.202259 0.039462 0.204236
-0.590988 -0.246694 0.470059
-0.218894 0.032800 0.136732
-0.725929 -0.273935 0.454718
-0.140659 0.027763 0.248575
-0.011220 0.024738 0.136834
-0.182602 0.021041 0.146346
-0.394333 -0.038084 0.349603
-0.765697 -0.202395 0.575177
-0.482919 0.020374 0.521446
-0.178404 -0.002037 0.153621
-0.018300 0.027282 0.108413
-0.022950 0.011258 0.096581
-0.716697 -0.211277 0.591812
-0.173096 0.017761 0.139551
-0.171090 -0.073364 0.172549
0.001793 0.081261 0.862714
0.022607 0.058001 0.345597
-0.678533 -0.300912 0.619987
-0.064286 0.030276 0.172669
-0.289408 -0.025692 0.236523
-0.246986 0.050570 0.205109
-0.343532 -0.015238 0.804769
-0.009354 0.025282 0.224612
-0.323172 0.028311 0.335066
-0.302877 0.000828 0.415291
-0.227743 -0.015946 0.358801
-0.273722 -0.085978 0.353282
-0.681458 0.053523 1.096839
-0.291161 -0.094755 0.197759
-0.177587 -0.056754 0.512569
-0.180610 0.027481 0.308131
0.010543 0.024107 0.137907
-0.410264 -0.133876 0.290572
-0.227692 0.015287 0.155574
-0.179401 -0.026214 0.178189
-1.239122 -0.154587 0.844143
-0.678959 0.051408 0.594493
-0.050228 0.030193 0.167587
-0.034662 0.030714 0.161448
-0.060343 0.020790 0.152455
-0.286066 -0.192167 1.078279
-0.009510 0.026094 0.186740
-0.074172 0.024142 0.164788
-0.647540 -0.191495 0.544785
-0.619834 -0.205690 0.642182
-0.055690 0.026070 0.205201
-0.083102 0.033896 0.279041
-0.041830 0.028122 0.216632
-0.191221 -0.083113 0.385749
-0.067590 0.006732 0.608968
-0.188610 0.029471 0.313649
-0.011967 -0.013201 0.168663
-0.015651 -0.014962 0.173853
0.029500 0.026054 0.378068
-0.065750 0.021326 0.170687
-0.050260 0.017549 0.152488
-0.062051 -0.182037 0.962505
0.022676 0.075205 0.354248
-0.078158 0.004194 0.500495
-0.192491 0.030680 0.273949
-0.186039 0.030209 0.268896
-0.062710 0.028014 0.218586
-0.228463 -0.082852 0.576640
-0.058643 -0.011413 0.594248
-0.073715 0.013609 0.207004
-0.009590 0.023510 0.231819
-0.059752 -0.016237 0.181776
0.022932 0.012835 0.247425
-0.456188 -0.090804 0.461651
0.179109 0.000775 0.557563
-0.082157 -0.322373 1.231909
0.162872 -0.243003 0.758917
0.217731 -0.092664 0.517308
0.475511 -0.235959 1.053052
0.432105 -0.164431 0.955905
0.203073 -0.117112 0.590052
0.088912 -0.252150 0.742238
0.153603 -0.246943 0.825563
0.249926 -0.459730 1.325410
0.098062 -0.179360 0.800430
0.137706 -0.190812 0.743396
0.398436 0.009736 0.846958
0.061247 -0.217231 0.735451
0.354702 0.040557 0.709505
0.213369 -0.352252 0.952576
0.126142 -0.018412 0.635113
0.508834 -0.166351 1.069425
-0.067092 -0.313611 1.076125
0.379573 -0.318328 1.074401
0.704492 -0.394188 1.438949
0.093152 -0.230060 0.775066
0.089801 -0.191705 0.747469
0.092292 -0.149485 0.781618
0.123334 -0.145327 0.578152
0.053934 0.219598 0.937779
0.073574 -0.308147 0.912702
-0.044055 -0.101543 0.801606
0.534177 -0.289118 1.079930
-0.008612 0.105138 0.460237
0.032177 0.252284 0.917136
0.099761 -0.177594 0.795454
0.175814 -0.113158 0.552048
0.113361 -0.180004 1.130295
0.089953 -0.117192 0.751410
-0.102282 -0.357793 1.014100
0.415340 0.232510 1.045754
-0.084598 -0.338161 1.273959
0.044777 -0.124495 0.732728
0.101247 -0.457385 1.198130
0.127592 -0.188629 0.600307
0.134446 -0.246675 0.742910
0.197320 -0.525198 1.325000
0.108203 -0.210712 0.726207
0.140467 -0.122475 0.599702
0.112046 -0.065324 0.691098
0.151596 0.076712 0.301335
0.761341 -0.449025 1.381652
0.086037 -0.014320 0.614984
0.197198 -0.161683 0.573295
0.247046 0.104480 0.759118
0.744349 -0.012687 1.367951
0.135814 -0.149594 0.595254
0.044358 -0.338766 1.145571
0.116714 -0.347784 1.168765
0.300039 -0.520611 1.284329
0.267799 -0.180058 0.592116
0.478144 -0.226957 1.027337
0.170965 -0.158925 0.548594
0.679661 -0.308247 1.247687
0.249115 -0.137001 0.574211
0.123411 -0.154588 0.693034
0.149740 -0.178062 1.123292
0.042600 -0.149427 0.656122
-0.102316 -0.347879 0.994237
0.279719 -0.494713 1.157928
0.085492 0.049032 0.314161
0.098850 -0.175555 0.703033
0.089247 -0.293511 0.927476
0.107148 -0.188024 0.822037
0.162582 -0.440331 1.108234
0.046565 -0.128162 0.365713
0.206428 -0.131625 0.575600
0.087794 -0.014314 0.620019
0.046791 -0.053653 0.689095
0.120565 -0.200660 0.909662
0.254069 -0.065989 0.466970
0.190429 -0.067424 0.436246
0.096067 -0.206637 1.067778
0.127753 -0.134689 0.666464
0.100785 -0.490336 1.238710
0.765275 0.022591 1.454646
0.212559 0.007171 0.487781
0.058776 0.094806 0.393584
0.098706 -0.048167 0.639283
0.120099 -0.178604 0.683886
0.066947 -0.326148 1.110553
0.374364 -0.215851 0.728005
-0.077847 -0.331768 0.967212
0.125289 -0.154603 0.638443
0.075080 -0.305940 1.118908
0.345660 0.011474 0.650567
0.172427 0.007234 0.400310
0.250705 -0.136621 0.573822
0.194479 -0.107241 0.549370
0.201252 -0.162599 0.578228
0.124321 -0.296327 0.704372
0.123079 -0.156951 0.696459
0.043624 -0.014945 0.621089
0.084794 -0.221870 0.654803
0.105794 -0.179474 0.725646
0.110014 -0.169309 0.745288
0.120528 -0.172096 0.799664
0.102801 0.246977 1.137622
0.029249 -0.101250 0.806023
0.099986 0.168831 0.598996
0.464915 0.041872 1.050482
0.096706 -0.265755 0.780091
0.117050 -0.352086 1.185219
0.146074 0.021906 0.308338
0.108131 -0.194118 0.735592
0.249770 -0.473949 1.349476
0.048553 -0.226965 0.648768
0.051163 -0.072946 0.714367
0.336936 0.238419 1.015971
0.108826 -0.201238 0.621766
0.005141 -0.021721 0.664731
0.243983 -0.161408 0.569368
0.126642 -0.248864 1.072621
0.097178 -0.217243 0.665384
0.482961 -0.006220 0.943949
0.159614 -0.128324 0.521955
0.221966 0.029162 0.456208
0.115730 -0.150077 0.768752
0.101138 -0.196737 0.785602
0.423935 0.018575 0.861928
0.118545 -0.166119 0.675719
0.310434 0.011815 0.569181
0.117772 -0.201572 0.671256
0.273076 0.035685 0.513716
0.081996 -0.178207 0.634918
0.226212 -0.390628 0.974905
0.215956 -0.146222 0.581761
0.086107 0.125358 0.911425
-0.215034 -0.109071 0.865260
-0.083593 0.008011 0.416879
0.163526 0.012277 0.334728
0.166257 -0.106103 0.532672
0.532606 -0.317340 1.125894
0.063403 -0.187263 0.662877
0.265928 -0.101339 0.600422
0.151548 0.146492 0.413221
0.114919 -0.173975 0.767236
0.757478 -0.369101 1.434097
0.112652 -0.143868 0.756776
0.365907 -0.103269 0.714182
0.131114 -0.170976 0.658330
0.171548 0.022114 0.404927
0.132392 -0.181603 0.645055
0.230590 0.002145 0.468835
0.245851 -0.150674 0.546462
0.210060 -0.134318 0.583137
0.198031 -0.133469 0.568964
0.221088 -0.089132 0.563982
1.659234 0.204604 2.255375
-0.086876 0.005642 0.435745
0.109404 -0.155622 0.840975
0.125290 -0.125314 0.730152
0.287817 -0.149537 0.590428
0.312958 -0.135738 0.567841
0.523808 -0.033689 1.130825
0.099752 -0.221058 0.677269
0.277178 0.118992 0.783060
0.631674 -0.460758 1.449921
0.163597 -0.077502 0.528684
0.701055 -0.012535 1.284044
0.704589 0.014883 1.434061
-0.184877 0.029075 0.388556
-0.024547 0.036697 0.137201
-0.056155 0.035887 0.146287
-0.023910 0.036346 0.136711
0.129923 -0.140636 0.575513
0.159669 0.069702 0.530914
0.182581 -0.002663 0.416255
0.163858 -0.103626 0.530339
0.047448 -0.055572 0.683054
0.222154 -0.233407 1.127685
0.225838 -0.129227 0.553190
0.043567 0.027579 0.436330
0.402089 0.008464 0.783239
0.035955 0.184783 0.693422
0.742126 -0.408050 1.452297
0.258492 -0.416969 1.118435
0.108562 -0.188795 0.732963
0.157721 -0.127783 0.514812
0.221045 0.015313 0.508889
0.185102 0.006970 0.447855
0.226619 -0.146622 0.574559
0.202578 -0.142720 0.577169
0.158102 0.000554 0.512288
0.283143 0.130649 0.612606
-0.257004 -0.178078 1.018137
0.357426 -0.191220 0.788009
-0.021390 -0.342123 0.947676
0.206581 0.089442 0.640338
-0.053632 -0.337176 1.128577
0.191654 -0.082076 0.539515
0.141774 -0.200235 0.693271
0.113649 0.005693 0.786389
0.159350 0.096952 0.420013
0.200653 -0.088608 0.484660
0.095492 -0.219977 0.649972
-0.023966 -0.413787 0.994277
0.143884 -0.193643 0.472661
0.446620 -0.023483 1.034509
0.152354 -0.226983 1.165203
0.187727 -0.140588 0.572028
0.240351 -0.158613 0.562086
0.088099 0.141082 0.677430
-1.323869 -0.888450 4.098764
-0.168049 -0.208796 0.715135
0.152689 0.007813 0.380948
0.076723 0.143240 0.907427
0.623982 -0.438756 1.391003
0.558048 -0.026324 1.083485
-0.212164 -0.130628 1.015154
0.186784 0.026236 0.388468
0.263077 -0.250502 0.826973
0.116302 -0.224773 0.981266
-0.159798 -0.013505 0.549153
0.127098 -0.163697 0.556233
0.069717 0.204549 0.616254
-0.262937 -0.354299 1.233718
-0.076536 0.009548 0.383476
-0.082696 0.013017 0.363478
-0.170139 -0.028828 0.581695
-0.279431 -0.209035 1.006211
-0.425442 -0.218869 1.549042
-0.084993 0.004637 0.514440
0.137317 -0.247670 1.267134
-0.286141 -0.172463 1.416589
0.087781 -0.310299 1.647516
0.199239 -0.287824 0.919021
-0.151031 -0.228843 0.888866
-0.084589 0.024208 0.219217
0.096231 -0.059543 0.705672
0.004221 -0.022838 0.706719
0.173079 -0.161234 0.554188
-0.489360 -0.359576 1.931284
-0.005245 0.034720 0.140616
0.160211 0.074098 0.432079
0.158503 -0.092364 0.514518
0.384312 0.179199 0.719190
0.076614 0.034646 0.767427
0.089149 -0.148026 0.752841
0.027418 -0.149768 0.824024
0.147900 -0.152321 0.695526
0.138805 -0.368810 0.932630
0.111345 -0.223458 0.607489
0.244130 -0.134974 0.570057
-0.002951 0.033575 0.163266
0.157106 0.006914 0.385984
-0.060784 0.025853 0.240319
0.103679 -0.182434 0.797711
-0.054085 0.036496 0.133675
0.100374 -0.013834 0.615938
0.048455 -0.345724 1.208383
0.015854 0.033865 0.134397
-0.091671 0.013464 0.387937
0.000249 0.032399 0.205600
-0.464155 -0.299633 1.676007
0.046199 -0.168382 0.704440
-0.024308 -0.362046 0.877424
-0.090745 -0.002085 0.396119
0.103991 -0.228250 1.363741
0.230885 -0.150854 0.584180
0.172294 -0.160117 0.554917
0.119149 -0.178481 0.791916
0.120805 -0.201510 1.020115
-0.219994 -0.146783 0.716596
0.227292 -0.155690 0.569402
0.160062 -0.127597 0.522305
-0.082381 0.011701 0.212554
-0.210923 -0.232801 0.878109
0.116536 -0.188279 0.662647
0.113750 -0.165660 1.056806
-0.003684 0.037685 0.159593
-0.021475 0.036243 0.135785
0.017313 0.035270 0.138868
0.087104 0.129974 0.657263
-0.246571 -0.460938 1.116830
0.126431 -0.109030 0.549895
-0.071320 -0.086479 0.726907
0.164050 0.005319 0.519634
-0.141826 -0.203259 0.714934
0.206370 -0.097869 0.550127
0.185151 -0.109040 0.550468
-0.075376 -0.239510 1.064291
0.163069 0.023690 0.343002
0.066879 -0.285621 1.008987
0.110264 -0.188104 0.744545
0.221352 -0.088708 0.522394
0.169664 -0.148716 0.547182
0.048142 -0.332662 1.215882
0.092089 -0.238984 1.157459
0.084398 0.047221 0.831715
0.030699 -0.104347 0.812493
0.015050 0.221289 0.765957
0.118888 -0.226679 0.664126
0.131114 -0.196374 1.230935
-0.097758 -0.010634 0.575973
0.167936 -0.120922 0.540496
-0.097500 -0.292251 1.485530
-0.339030 -0.170632 1.400333
0.181390 -0.148043 0.575906
0.252352 -0.187097 0.664156
-0.080215 0.012413 0.519892
-0.169099 0.031002 0.317589
-0.103982 -0.030648 0.314115
0.117222 -0.190882 1.009645
0.239597 -0.151398 0.600592
0.110831 -0.183312 0.964433
0.051558 -0.067433 0.707641
0.049443 -0.121707 0.780825
0.173781 -0.134332 0.534034
0.118371 -0.166088 0.677570
-0.123146 0.016256 0.505092
-0.244862 -0.317698 1.123985
-0.272067 -0.266503 1.051353
0.112732 -0.224932 0.763804
-0.073154 0.028966 0.226405
-0.010135 0.035938 0.145827
0.007673 0.042101 0.149099
0.005856 0.037089 0.135423
0.337175 0.149588 0.750811
0.092004 -0.213673 0.735055
0.245663 -0.143829 0.541609
0.319705 0.135530 0.864721
0.012678 0.068639 0.509068
0.548610 0.222776 1.624211
0.179186 0.079043 0.544078
-0.239553 -0.331580 1.146653
-0.076607 0.010123 0.383159
0.186378 -0.113247 0.569651
0.124089 -0.135859 0.656097
0.209615 -0.081115 0.528179
0.185582 -0.148474 0.569859
-0.104031 -0.051749 0.250823
-0.051694 0.033346 0.182378
0.032520 0.031271 0.199959
0.016393 0.034278 0.135229
0.000429 0.037159 0.232206
0.144472 -0.125857 0.612832
0.542341 -0.370621 1.265494
0.064209 -0.379905 1.197966
0.210381 0.101856 0.717165
0.135400 -0.360784 1.033378
-0.086360 0.023188 0.222000
-0.134452 0.033548 0.260761
-0.083951 0.024401 0.219015
0.126758 -0.126448 0.732995
0.285625 0.130010 0.633364
0.069600 -0.052850 0.672477
0.065074 -0.051992 0.686437
-0.005173 0.035442 0.142640
-0.080312 0.014843 0.208851
-0.029715 0.033481 0.171303
0.235100 0.103673 0.643934
-0.098036 -0.049116 0.238556
0.111479 -0.144853 0.942907
0.122175 -0.245057 0.659031
-0.120960 -0.191083 0.672044
-0.003379 0.009847 0.025253
0.121506 -0.145093 0.689264
-0.005358 0.034332 0.140047
0.016048 0.033903 0.134156
0.016334 0.034069 0.134743
-0.024035 0.035416 0.133133
0.235852 -0.143340 0.574115
0.073216 -0.337255 0.936713
0.099472 -0.201911 0.769282
0.069683 -0.344878 1.115965
0.259350 -0.171232 0.598297
0.065253 -0.334366 1.071721
0.140524 -0.365814 1.086085
0.131450 -0.210469 0.618275
0.264918 -0.114451 0.618806
0.180799 -0.085045 0.566919
-0.073890 0.009318 0.226402
0.115999 -0.123726 0.771035
0.093489 -0.223252 0.754180
-0.189363 -0.307680 1.005165
0.127505 -0.016386 0.636720
-0.278314 -0.162566 0.945122
0.103541 -0.200218 0.704834
-0.347097 -0.242760 1.235553
-0.157071 -0.125294 0.631571
0.191547 0.013103 0.397352
0.301894 -0.234033 0.828280
0.119561 -0.152971 0.533605
-0.005059 0.034681 0.140139
-0.003801 0.034343 0.150177
0.014639 0.033577 0.156928
0.014266 0.033278 0.155533
-0.049567 -0.024769 0.638880
-0.192204 0.059246 0.345835
0.180570 -0.097461 0.564087
0.042676 -0.204227 0.561903
0.089422 -0.179261 0.967687
0.070146 0.294832 1.442248
0.159041 -0.002983 0.385363
0.130588 -0.188199 0.632800
0.129544 -0.139038 0.719376
0.158869 -0.181852 1.159988
0.124091 -0.111235 0.694268
0.119201 -0.654240 2.978382
0.065315 -0.194006 0.959062
0.263215 -0.164965 0.651555
-0.104915 -0.124286 0.458210
-0.065457 0.030459 0.218402
-0.073977 0.017855 0.227832
0.188939 -0.156023 0.553327
0.101813 -0.014731 0.615330
-0.074284 0.017418 0.229709
-0.084743 0.023161 0.219460
-0.085691 0.010411 0.220774
-0.073697 0.032368 0.225492
-0.044286 0.032614 0.233097
0.000791 0.029688 0.215204
0.040835 0.021358 0.321319
0.033221 0.027238 0.228446
0.147828 -0.197104 0.707306
0.127092 -0.185669 0.626499
-0.171013 -0.270637 0.944156
-0.111555 0.045214 0.572811
0.127209 0.005180 0.594708
-0.104297 -0.052392 0.247972
-0.092115 0.011246 0.232648
0.214285 0.093647 0.581974
-0.151114 -0.061300 0.524838
-0.159361 -0.011345 0.546099
-0.178971 -0.050861 0.547179
0.250079 -0.111308 0.584692
0.187959 -0.150307 0.571006
0.043037 -0.118025 0.715693
0.016329 0.035461 0.163183
-0.009910 0.036307 0.147127
0.010437 0.033241 0.154403
0.027377 0.033642 0.149649
-0.178751 -0.154935 0.608423
-0.392148 -0.354914 1.358292
-0.180680 -0.107844 0.904441
0.075865 -0.175909 0.773206
-0.251568 -0.128812 0.719373
0.080217 -0.110807 0.736106
0.044887 -0.171714 0.621089
0.083981 -0.200357 0.697094
-0.078267 0.012832 0.518600
-0.087387 0.013615 0.403946
0.148205 -0.149534 0.954844
-0.084012 0.010677 0.216879
0.171862 0.014109 0.414368
-0.077893 0.022548 0.215393
0.242949 -0.147536 0.588298
0.202880 -0.103161 0.549761
-0.071066 0.032710 0.229461
0.195433 -0.393477 1.023107
0.179001 0.007984 0.434510
-0.066342 0.034401 0.181885
-0.069218 0.030516 0.211849
-0.018137 -0.323753 1.003120
0.047802 -0.162570 0.892381
-0.109983 -0.324305 1.687126
0.114574 -0.130447 0.780316
-0.082079 -0.358254 1.253153
-0.352913 -0.104810 0.580920
0.121296 -0.176540 0.618998
-0.085702 0.029841 0.452713
0.091953 -0.184257 0.736369
-0.016903 -0.035057 0.246294
-0.082434 0.006968 0.660238
0.047814 0.017722 0.377300
0.221035 -0.152725 0.580489
0.048577 -0.163725 0.715822
-0.273451 -0.205849 0.977783
-0.327187 -0.168517 1.186297
-0.062735 -0.013147 0.624838
-0.041860 0.032769 0.257255
0.123382 -0.185033 0.580160
-0.092125 0.004368 0.535891
-0.274870 -0.138767 0.782222
-0.081240 0.013026 0.528072
0.047691 -0.052523 0.694437
0.158280 -0.129098 0.517819
0.123716 -0.051280 0.633413
0.157864 -0.001784 0.380888
-0.072562 0.010139 0.222768
-0.313850 -0.137560 0.571882
-0.064204 0.027871 0.276892
-0.065022 0.034955 0.177599
-0.071431 0.021152 0.205355
-0.064763 0.034929 0.176906
0.127075 -0.203637 0.565692
-0.068375 0.031810 0.221148
-0.074420 0.021676 0.212067
-0.079906 -0.045827 0.236724
0.293069 -0.205867 0.789092
0.057815 0.182418 0.751652
0.185929 -0.144880 0.566971
0.123340 -0.092465 0.623926
0.058467 -0.138825 0.739847
-0.130557 0.032855 0.254437
0.036259 0.027761 0.421206
0.123231 -0.307787 1.050695
-0.041282 0.027305 0.230894
-0.160032 -0.023161 0.548189
0.045191 -0.174079 0.624175
0.067949 -0.163579 0.670874
-0.072682 0.037403 0.187880
-0.009741 0.035540 0.145506
0.078998 -0.052722 0.689307
0.016912 0.033669 0.156000
0.028168 0.032204 0.174167
-0.054887 0.035988 0.157895
0.051282 -0.141354 0.817448
-0.105169 -0.050643 0.250402
0.165588 -0.150232 0.533437
0.053466 -0.212735 0.690537
0.121710 -0.155919 0.691773
0.109319 -0.166011 0.751830
0.214424 0.095234 0.587202
0.085140 -0.201398 0.876157
0.100406 -0.050992 0.653796
-0.072841 -0.092583 0.738216
0.247315 -0.109101 0.647996
-0.072812 0.000289 0.224602
-0.100833 -0.050650 0.242494
0.141309 -0.313949 0.996407
0.124752 -0.135984 0.657723
0.035409 -0.094440 0.765931
0.100164 -0.138467 0.800485
0.291293 -0.083858 0.529378
0.250462 -0.003786 0.527298
0.121396 -0.108487 0.652874
0.112058 -0.009987 0.563990
0.083886 -0.135559 0.662700
0.094220 -0.079190 0.627557
0.035386 0.013914 0.460467
0.061722 0.183818 0.837883
-0.310378 -0.016398 0.735550
-0.067510 0.028584 0.262049
-0.074505 0.029379 0.230014
0.110379 -0.130493 0.516862
0.395417 -0.137876 0.507944
0.150229 0.012687 0.505134
0.118969 -0.034060 0.613474
0.388830 -0.089164 0.521718
0.122521 -0.083382 0.635707
-0.207884 -0.007324 0.555254
-0.056196 0.005718 0.485403
-0.004168 0.021265 0.412546
0.079418 -0.150275 0.896754
0.089614 0.199333 1.047836
0.009791 0.044236 0.628866
0.004501 -0.020322 0.664750
-0.111166 -0.075049 0.576429
-0.101269 -0.051667 0.534091
-0.167424 -0.047951 0.506183
0.187819 -0.079323 0.525295
0.118828 0.013964 0.517121
0.306929 -0.112217 0.568445
0.122548 0.008874 0.591227
0.293249 -0.080392 0.530283
0.036506 0.023992 0.457989
-0.171730 0.015515 0.559700
0.121869 0.243226 0.949560
-0.180295 0.012891 0.551499
-0.074491 0.032839 0.227252
-0.042802 0.030806 0.225063
-0.102056 -0.108060 0.433772
-0.074774 0.010296 0.227202
0.252141 -0.164249 0.577728
-0.010969 0.022999 0.355831
0.006125 0.050462 0.535958
-0.075914 -0.003025 0.357805
0.196149 -0.135146 0.586454
0.116758 -0.077087 0.630432
0.153188 0.014264 0.485022
0.154075 0.015739 0.447168
0.399114 -0.134745 0.508714
0.214435 -0.080412 0.527259
0.397978 -0.003730 0.514030
0.088768 -0.190679 0.807650
0.313848 0.142187 0.684812
0.164295 -0.119795 0.531633
-0.044523 -0.031496 0.193178
0.264126 -0.147652 0.572563
0.072425 -0.057810 0.732473
-0.010071 0.032093 0.181307
-0.329870 -0.265225 1.051769
0.119956 -0.129803 0.686832
0.073033 -0.166222 0.673609
-0.062949 0.015381 0.469777
0.130486 -0.120688 0.673167
0.071618 -0.117954 0.788603
-0.067723 -0.080375 0.702345
0.127235 -0.161615 0.654196
-0.075674 -0.069498 0.347264
0.046477 -0.194667 0.605524
-0.007440 0.049612 0.451727
-0.010192 0.028797 0.238894
-0.348256 0.014965 0.593559
0.034176 0.029720 0.241223
-0.168640 -0.204350 0.695379
0.039559 0.020516 0.325665
0.048551 -0.324485 1.210142
0.090347 -0.189687 0.912940
-0.267532 -0.209732 1.001418
-0.009623 0.026853 0.228321
-0.077163 0.013117 0.516330
0.044510 -0.153203 0.641186
-0.130145 0.004514 0.548011
0.048012 -0.145019 0.697341
0.056442 -0.134637 0.706607
-0.080160 -0.046385 0.357617
0.197424 -0.081002 0.525930
0.042090 -0.016059 0.615622
-0.103693 -0.150403 0.621215
0.073639 0.392770 1.900001
-0.067299 -0.230257 1.039351
0.070518 -0.139879 0.673446
0.134080 -0.300774 0.885205
-0.031908 0.036162 0.181297
-0.030030 0.033776 0.172468
0.099804 -0.047173 0.640271
0.038597 0.006135 0.498202
0.121695 -0.134934 0.809744
0.058006 -0.187965 0.791048
-0.145903 -0.202459 0.748659
0.044592 0.021797 0.326145
-0.009816 0.027948 0.250847
-0.083423 -0.004157 0.411726
-0.003963 0.033292 0.147148
-0.171130 -0.028817 0.581354
0.327485 -0.213811 0.777320
0.042878 0.022091 0.334382
0.027215 -0.040786 0.649783
0.059431 -0.180979 0.909621
-0.046127 0.030483 0.244759
0.202062 -0.137071 0.580018
0.046259 -0.178728 0.627321
0.119979 -0.154921 0.794435
-0.151986 -0.061571 0.524885
0.135597 -0.141710 0.740920
0.048635 -0.146819 0.704189
0.249228 -0.155626 0.575111
-0.063697 0.026408 0.282134
-0.253929 0.024414 0.564729
-0.039600 0.025552 0.226183
0.272533 0.124588 0.614817
-0.181967 -0.290473 1.083344
-0.216564 -0.007867 0.552675
-0.051973 0.033708 0.183668
0.031811 0.028224 0.230580
-0.129226 0.032793 0.252518
-0.010083 0.028809 0.237180
-0.005308 0.036628 0.146521
0.392741 0.000524 0.512110
0.395066 -0.087777 0.508803
0.395498 -0.092395 0.509094
0.391833 0.003837 0.515589
0.396259 -0.041223 0.510808
0.396093 -0.039315 0.509557
-0.284179 -0.126271 0.686968
-0.296056 -0.150570 0.707289
0.130833 -0.118580 0.662217
0.041483 -0.130300 0.661517
-0.322976 -0.194337 0.904624
-0.331126 -0.230309 0.931626
0.128495 -0.111404 0.546500
-0.209337 -0.006099 0.538228
0.116271 -0.143732 0.777164
0.022711 0.022934 0.344246
-0.083703 0.020704 0.419468
-0.041769 -0.090298 0.754238
0.234842 -0.149070 0.585008
-0.044233 0.031883 0.229966
-0.064504 0.035114 0.177208
0.030282 0.020732 0.325230
-0.077288 0.009374 0.204673
0.189241 -0.111306 0.556489
-0.168392 -0.165070 0.570167
0.077018 -0.228797 0.866845
-0.073726 0.012104 0.226297
0.120655 -0.206560 1.035190
-0.082405 0.012873 0.385030
0.164762 -0.123717 0.529716
-0.210040 -0.093476 0.532193
0.328487 -0.236458 0.751172
-0.227375 -0.005429 0.580665
0.080321 -0.172880 0.804488
0.081509 -0.048453 0.562374
0.242721 -0.134036 0.578165
0.043556 0.030275 0.194938
0.104783 -0.057989 0.639162
0.138536 -0.196671 0.758274
0.067038 -0.166072 0.675295
0.014915 0.023246 0.315534
-0.053985 0.026918 0.272407
0.027170 0.023458 0.294323
0.014669 0.022769 0.313811
-0.067170 0.024546 0.327144
0.204801 -0.142643 0.548909
-0.086727 -0.007665 0.530913
0.029912 0.025967 0.224622
0.049848 -0.164177 0.724612
0.172703 -0.123783 0.546896
0.127330 -0.194752 0.602201
0.190602 -0.105410 0.573019
0.213377 -0.092861 0.541260
0.099774 -0.117467 0.642732
0.239395 -0.097067 0.559356
0.044491 0.013721 0.477969
0.015121 -0.021093 0.663188
0.200545 -0.164370 0.587302
0.242683 -0.147582 0.580642
-0.290345 -0.248766 1.269949
0.267037 -0.090309 0.540384
0.228138 -0.082892 0.529449
0.292008 -0.079626 0.530572
0.263813 -0.081454 0.525236
0.267508 -0.119165 0.533803
0.234734 -0.084427 0.533325
-0.054790 0.024643 0.310335
-0.091223 -0.093156 0.421137
0.042463 0.018796 0.310704
-0.255451 -0.162764 0.638578
-0.171529 -0.167960 0.581487
0.160759 -0.156463 0.522685
0.003672 0.027921 0.218108
-0.001304 0.027997 0.195658
-0.047760 0.031347 0.251479
0.116129 -0.119242 0.775657
0.400570 -0.113549 0.497579
0.179491 -0.185525 0.879794
0.124924 -0.110031 0.626022
-0.094043 -0.058855 0.544632
-0.300870 -0.217108 1.021355
0.051244 -0.071668 0.706918
0.106906 -0.113040 0.750611
-0.266844 -0.200929 1.060027
0.026862 0.285904 2.141124
0.047408 0.014788 0.452556
0.046655 -0.194984 0.611394
0.066888 0.141726 0.887999
-0.296175 -0.202889 0.957966
-0.331840 -0.193515 0.938018
-0.026464 0.010115 0.161472
-0.285250 -0.172810 0.684171
-0.257603 -0.081558 0.685362
-0.216975 -0.138921 0.561706
-0.178839 -0.009594 0.702573
0.111644 -0.016718 0.618203
0.117901 -0.078551 0.622212
0.196957 -0.090277 0.532815
-0.030764 0.034543 0.175414
-0.059478 0.035507 0.175010
0.010942 0.036097 0.165019
-0.069674 0.032393 0.223390
-0.071924 -0.000240 0.221995
-0.069687 0.000426 0.216785
0.069367 0.033881 0.256905
0.129548 -0.175961 0.626491
0.210609 -0.180326 0.637402
-0.178021 0.019656 0.535838
0.049838 -0.365071 1.161696
0.131544 -0.168943 0.651670
-0.284313 -0.267206 1.063410
-0.311343 -0.397158 1.364736
0.152727 0.014961 0.459012
0.173660 0.020314 0.469267
-0.223541 0.008928 0.572821
-0.013628 0.021830 0.305310
-0.877191 -0.181228 0.527279
0.109231 -0.151656 0.622301
-0.072211 0.009748 0.367566
-0.074973 -0.188283 0.744832
0.147819 -0.156532 0.599215
0.454021 -0.255752 0.983681
0.180936 -0.160987 0.735807
0.041192 0.021400 0.329225
0.132447 -0.183889 0.646566
0.140453 -0.121140 0.586875
0.069245 -0.187875 0.812594
0.113047 -0.068994 0.620092
0.208605 -0.141383 0.581177
0.111937 -0.107675 0.653088
0.064728 0.281326 1.184016
0.119086 -0.083196 0.626435
0.124868 0.012801 0.523765
0.293782 -0.112637 0.550504
0.174920 -0.080965 0.527916
0.115391 -0.084096 0.627324
0.110522 -0.083171 0.631555
0.103953 -0.027097 0.616945
0.116240 -0.063906 0.610647
0.106063 -0.089651 0.630981
0.108291 -0.092459 0.633546
0.102073 -0.134887 0.732014
0.095786 0.010730 0.608358
0.235935 -0.085110 0.534014
0.074604 0.007489 0.579054
0.287631 -0.109233 0.563627
0.108999 -0.111180 0.667755
0.295263 -0.116797 0.550059
0.126357 -0.075980 0.619841
-0.061760 0.025538 0.258663
0.037560 0.027887 0.233401
0.100131 -0.197824 0.690736
0.055284 -0.169952 0.812650
-0.160816 -0.022938 0.567950
0.132539 -0.119552 0.736232
-0.172065 -0.091625 0.591539
0.335344 -0.071378 0.479231
-0.150667 -0.146920 0.525635
0.047536 0.018182 0.379776
-0.192468 -0.060274 0.541096
0.044534 0.014383 0.449779
0.243236 -0.127295 0.536072
0.244862 -0.127403 0.536680
0.199960 -0.083198 0.525424
0.149534 -0.066814 0.493115
0.248155 -0.136103 0.580658
0.067935 0.007102 0.574679
0.165706 -0.072123 0.517053
0.037258 0.001457 0.511474
0.111694 -0.020658 0.598612
0.255005 -0.127763 0.537350
0.225023 -0.077614 0.519839
0.039664 -0.103558 0.653906
0.231764 -0.125201 0.555465
0.266197 -0.084608 0.533138
0.173798 -0.079076 0.526027
0.287110 -0.115572 0.551646
0.277837 -0.109921 0.535956
0.139608 -0.091825 0.666718
-0.193036 -0.031937 0.165198
0.074761 -0.135129 0.750399
-0.145605 -0.170920 0.779871
0.113586 -0.174944 0.769724
0.044509 -0.169837 0.615388
0.069041 -0.146737 0.664944
0.168981 -0.164817 0.542986
-0.061577 0.026558 0.294753
0.126709 -0.014636 0.632622
0.088319 -0.026105 0.605977
0.158056 -0.134362 0.637834
0.196341 -0.161674 0.573597
-0.791996 0.184120 1.599971
0.096072 -0.189339 0.758069
-0.342616 -0.211918 0.961219
0.123791 -0.071089 0.627062
-0.062161 0.028609 0.318169
-0.290552 -0.196281 1.085725
-0.276584 -0.186636 1.043293
0.093810 -0.173745 0.695516
0.090350 -0.014899 0.612970
-0.083760 -0.006580 0.516252
0.068538 -0.001756 0.580544
0.033224 0.025185 0.223299
0.193621 -0.082133 0.529749
0.290079 -0.110949 0.535934
0.194648 -0.079808 0.527396
-0.109966 -0.378041 1.088088
-0.088741 -0.299244 1.367258
0.025256 0.027584 0.386424
0.124953 -0.150899 0.631708
0.209888 -0.080491 0.528072
-0.257985 -0.189412 1.027805
-0.179242 -0.051380 0.543615
0.136542 -0.165078 0.740642
0.013483 0.027564 0.256191
-0.002693 0.025967 0.225539
0.042575 -0.026653 0.631774
0.020174 0.089134 0.707368
0.103059 -0.254706 1.403037
0.019519 0.161032 1.015762
0.039379 -0.012357 0.591588
0.004669 0.012843 0.413445
0.017283 0.016173 0.464190
0.012149 0.021589 0.495314
-0.072837 -0.034015 0.337192
-0.289138 -0.170480 0.662905
-0.192558 -0.061081 0.541106
-0.220660 -0.097902 0.554812
0.126855 -0.171596 0.618014
-0.067037 0.027304 0.284333
-0.081798 0.013728 0.362322
0.223821 -0.081448 0.527252
0.048877 -0.182629 0.644298
0.063405 -0.180722 0.646294
0.051793 -0.170530 0.937141
0.026027 0.119024 0.798023
-0.280485 -0.173829 0.666808
0.065983 -0.160936 0.745519
0.125699 -0.127183 0.677962
0.051204 0.019802 0.387485
-0.273775 -0.176046 1.044693
-0.067038 -0.209014 0.960668
0.219452 -0.078511 0.535129
0.393721 -0.081630 0.509074
0.122737 -0.027365 0.624292
0.401008 0.003218 0.512527
0.208856 -0.093005 0.548665
0.117332 -0.095854 0.624507
0.139049 0.011519 0.437559
0.395639 -0.092054 0.509242
0.400145 0.003589 0.512279
0.112096 -0.034464 0.613362
0.220376 -0.100045 0.553470
0.116977 -0.079611 0.630422
0.120201 0.014395 0.518853
0.164427 -0.281333 0.988193
0.154781 0.014946 0.473909
0.400998 -0.144368 0.510102
0.188143 -0.077509 0.523620
0.402261 -0.113589 0.497685
0.150319 0.014121 0.454897
0.152369 0.015202 0.443114
0.396372 -0.041587 0.510688
0.402277 -0.002697 0.514242
0.188632 -0.078669 0.526287
0.149666 0.014117 0.456897
0.209014 -0.150432 0.588777
-0.094864 0.041574 0.557133
0.280382 -0.090773 0.543960
0.126737 -0.023109 0.653607
0.119980 -0.069366 0.603632
0.117982 -0.035857 0.607175
0.108283 -0.046761 0.602480
0.123981 0.016196 0.431173
-0.063956 0.018185 0.424807
0.006209 0.018471 0.404156
0.070634 -0.160583 0.712239
0.097327 -0.127041 0.710817
0.567486 -0.414013 1.303322
0.050452 -0.380267 1.231034
-0.056150 0.024783 0.313171
-0.018706 0.027214 0.251635
0.022778 0.117460 0.759007
-0.179963 -0.051786 0.541188
0.065641 -0.168381 0.654398
-0.086910 -0.120885 0.530486
-0.077216 -0.233801 1.048949
-0.010222 0.027393 0.248666
0.201517 -0.136941 0.584235
0.077403 0.126153 0.718332
0.098279 0.007153 0.583583
0.100516 -0.052349 0.606599
0.019214 0.016075 0.428509
-0.065083 -0.047711 0.672353
0.011373 0.016814 0.418694
0.126580 -0.145409 0.659114
-0.073428 0.016438 0.532120
0.093923 -0.134374 0.700997
0.045912 0.007189 0.587333
-0.109084 -0.059061 0.570085
0.101023 -0.176428 0.703324
0.090813 -0.125286 0.760998
0.047482 -0.133254 0.704148
-0.104771 0.010541 0.509609
0.076530 -0.122506 0.697699
0.125734 -0.171811 0.616998
0.117985 -0.142469 0.680170
-0.227988 -0.142326 0.564190
0.125570 -0.125774 0.699259
-0.102854 -0.041891 0.407686
-0.071765 0.019774 0.367747
-0.054053 0.023932 0.306560
0.047515 0.021330 0.333686
0.148420 0.013885 0.439337
0.110339 -0.028549 0.613291
0.185235 -0.078418 0.525502
0.187394 -0.082968 0.533827
-0.285506 -0.209970 1.000784
0.127599 -0.145933 0.659182
0.074363 -0.180510 0.643082
-0.047879 0.021177 0.378388
0.068716 -0.051570 0.652582
-0.105283 0.012190 0.509970
0.004947 0.018598 0.384380
-0.084354 -0.344962 1.287250
0.002441 0.027913 0.541312
0.156519 -0.091155 0.510731
0.164905 -0.093419 0.514729
0.044875 0.015942 0.399420
-0.044864 0.020878 0.370958
-0.071297 0.006310 0.365045
-0.341828 -0.292881 1.146982
0.128511 0.290746 1.359063
0.004959 0.003003 0.580714
0.036596 -0.181713 0.997800
0.105745 -0.029055 0.595298
0.210982 -0.080445 0.526852
-0.210287 -0.127498 0.519817
-0.064781 0.021569 0.381592
-0.003633 0.025708 0.340787
0.175493 -0.082302 0.528205
0.174985 -0.092063 0.551275
-0.222662 0.004304 0.558260
0.157975 0.015142 0.492730
0.118364 -0.093921 0.612371
0.116717 -0.055482 0.621807
0.201596 -0.078008 0.523458
0.080803 -0.137544 0.712174
-0.282846 -0.155227 0.890561
0.074990 -0.167451 0.764581
0.044056 0.014270 0.439637
0.074555 -0.177115 0.674788
-0.066844 -0.161972 1.079809
0.102290 -0.203283 1.073044
0.072145 -0.190817 0.640273
0.116262 -0.129547 0.783528
-0.185981 -0.232937 0.932380
0.089394 -0.190689 0.665321
-0.062641 0.023655 0.445123
-1.033773 0.243317 2.013975
0.122386 -0.095630 0.611048
0.125634 0.008001 0.508352
0.139185 0.011452 0.442469
0.111324 -0.077029 0.611268
-0.232036 -0.063809 0.158820
-0.467485 0.001470 0.262393
-0.321069 -0.262890 1.014062
0.133791 -0.122758 0.680038
0.048983 -0.054674 0.696290
0.206143 -0.152634 0.583101
-0.200704 0.079503 0.738080
-0.092562 -0.054835 0.402215
-0.010738 0.027528 0.248391
-0.284184 0.025295 0.619247
0.047248 0.016342 0.431540
-0.083834 -0.044710 0.510173
-0.061852 0.026879 0.293489
-0.174136 -0.030704 0.581939
-0.026102 0.022129 0.322078
0.014482 0.022715 0.311815
0.013834 0.022811 0.312271
-0.073518 0.000201 0.369609
0.121510 -0.116598 0.672542
0.024030 0.097869 0.586384
0.043723 -0.152717 0.637610
0.048523 -0.120596 0.894071
0.033010 0.028344 0.232925
-0.040302 0.028790 0.216881
-0.143607 0.020553 0.562806
-0.045782 0.021407 0.372734
0.393131 -0.128623 0.501659
0.155061 0.014724 0.503318
-0.065125 0.015258 0.495785
0.121136 -0.137539 0.635825
0.100868 -0.201916 0.826563
-0.021371 0.022770 0.328316
0.002945 0.022129 0.330811
-0.002076 0.029110 0.236227
-0.076514 0.018784 0.247525
-0.118512 -0.129751 0.507701
-0.240886 -0.126579 0.599566
-0.280754 -0.208768 0.997401
-0.240810 -0.178028 1.094617
-0.229525 -0.007432 0.579147
-0.220998 -0.117760 0.551847
-0.002323 0.024336 0.325777
-0.269855 -0.209885 1.043598
0.123040 -0.137449 0.658606
-0.060959 -0.010429 0.612959
-0.077068 -0.029766 0.373729
0.117700 -0.128786 0.785459
-0.075433 0.008908 0.381098
0.118550 -0.127171 0.546224
-0.183553 -0.054844 0.535940
0.244565 -0.101014 0.549931
0.252952 -0.075300 0.527501
0.041753 0.021449 0.330150
-0.024275 0.024025 0.302825
-0.107518 -0.007082 0.517612
-0.322742 -0.350896 1.216155
-0.021349 0.027744 0.240171
-0.285985 -0.216550 0.901841
0.113972 -0.039781 0.628967
0.115476 -0.024970 0.620153
0.114552 -0.031378 0.619645
0.158973 0.015757 0.487478
-0.027181 0.023826 0.327400
-0.072293 0.022499 0.349797
0.114720 -0.056279 0.611492
-0.063204 0.009860 0.587089
0.089627 -0.059967 0.603961
0.078400 -0.016210 0.583168
0.045027 0.014649 0.442679
0.088453 -0.013869 0.620213
0.048031 -0.119429 0.687691
-0.083807 -0.055963 0.510256
0.067350 -0.012325 0.627477
-0.004650 0.016690 0.416605
0.119224 -0.133831 0.609363
0.059609 -0.002388 0.549538
0.088245 -0.016858 0.583172
-0.008393 0.007594 0.568063
0.096654 -0.024902 0.608253
-0.011029 0.019398 0.386086
-0.067787 -0.049900 0.686780
0.067326 -0.015486 0.631449
-0.058413 0.018567 0.420433
-0.131530 -0.056999 0.528094
-0.109570 -0.054519 0.511270
-0.011114 0.019012 0.402855
0.047184 0.017119 0.402981
0.118698 0.005059 0.577644
-0.038229 0.020278 0.369612
-0.041562 0.020153 0.392997
-0.039208 0.021540 0.372987
-0.074321 0.011666 0.509352
-0.324436 -0.225684 1.029768
0.047109 -0.036009 0.636497
-0.122356 0.016073 0.519327
-0.011428 0.019571 0.404208
-0.064953 0.022929 0.359869
-0.073477 0.005935 0.369398
0.094591 -0.124531 0.704608
-0.268590 -0.156281 1.015567
0.125150 -0.137167 0.709712
0.094794 -0.174182 0.783392
-0.293496 -0.313690 1.102661
-0.081952 0.005810 0.361479
0.023117 0.018604 0.420384
0.127087 -0.315797 1.170996
0.123230 -0.107922 0.533264
-0.128941 0.017063 0.530348
0.087858 -0.174950 0.668706
0.124678 0.004970 0.586816
0.050122 -0.151303 0.721347
-0.045016 -0.022193 0.593706
-0.365085 0.085954 0.868278
-0.102814 0.032240 0.583273
0.024630 0.020047 0.353391
0.004006 0.023308 0.309639
-0.068770 0.018728 0.467082
-0.270879 -0.291114 1.085033
0.003662 0.019005 0.450478
-0.013995 0.023855 0.313251
0.060440 -0.092795 0.639988
0.040724 0.006760 0.529703
0.095038 -0.159688 0.702480
0.018553 -0.000122 0.586654
-0.307787 -0.209432 1.024258
-0.004135 0.019860 0.431593
0.004857 0.017426 0.418464
-0.038158 0.014228 0.490628
-0.072021 0.020196 0.367569
-0.071176 -0.031517 0.364966
-0.074366 0.021911 0.371124
0.310425 0.122690 1.146387
0.005122 0.002973 0.576764
-0.083016 0.006417 0.362977
-0.011315 0.023412 0.296946
0.024176 0.020022 0.353890
0.122457 -0.047840 0.627279
-0.072900 0.022457 0.378704
-0.053059 0.027303 0.408832
-0.024190 0.023789 0.301907
0.390913 -0.083640 0.502628
0.117515 -0.094337 0.619664
0.281680 -0.111318 0.527613
-1.015619 -0.119343 0.162690
0.391205 0.002556 0.528245
0.396293 -0.127582 0.508292
-0.315803 -0.208547 1.098844
0.047794 0.169431 0.882155
0.047089 -0.053586 0.678778
-0.050510 -0.023978 0.646958
-0.002839 0.018691 0.383850
0.040576 0.022355 0.322814
-0.055453 0.025075 0.311587
-0.144271 -0.012239 0.509304
0.006005 0.025070 0.286408
-0.261301 -0.196242 0.993423
0.014341 0.007970 0.584940
-0.051401 0.026238 0.404879
0.125904 0.008604 0.514622
-0.069128 -0.004410 0.356408
-0.170767 0.016451 0.558022
0.199020 -0.134449 0.578624
-0.058891 0.023247 0.269882
0.125489 -0.108641 0.621045
0.003235 0.019933 0.430866
0.104340 -0.121357 0.741852
0.120096 -0.118542 0.659398
0.105470 -0.112620 0.745056
0.042537 -0.123203 0.666589
0.046489 -0.159608 0.655929
-0.074725 0.023326 0.354339
-0.085301 0.015933 0.364744
0.123132 -0.100152 0.532614
-0.046970 -0.037091 0.413024
-0.094332 0.032365 0.494449
0.003643 0.022952 0.308109
-0.041711 0.026402 0.299409
-0.132805 -0.048517 0.520110
-0.284517 -0.173013 0.898097
0.007805 0.020282 0.370879
0.002280 0.017642 0.418388
0.022234 0.014566 0.477729
0.175524 -0.158935 0.852683
0.081746 -0.128048 0.717435
-0.084315 0.025831 0.507838
-0.039366 0.021497 0.373084
0.003264 -0.018226 0.602750
0.106540 -0.243565 1.067662
-0.083958 -0.049229 0.515088
0.012067 0.018355 0.404653
0.122376 -0.101815 0.607448
0.087520 -0.011394 0.581192
-0.030381 0.017872 0.433552
-0.079708 -0.042894 0.497589
-0.089370 -0.059481 0.524834
0.119135 -0.120451 0.790952
0.029381 0.029491 0.478248
0.055463 -0.136926 0.663880
0.122273 -0.011340 0.586983
0.038078 -0.129804 0.575455
-0.028741 0.019579 0.396063
0.086881 -0.024667 0.602617
0.205098 -0.088177 0.537332
-0.050740 0.023658 0.399140
0.070664 0.303864 1.675493
0.070241 -0.146819 0.874894
0.059988 0.005474 0.572178
-0.479651 -0.337149 1.133936
0.042029 -0.025569 0.613957
0.083698 -0.239924 1.026307
0.048387 0.021621 0.335784
0.131585 -0.149477 0.573039
0.021209 0.027110 0.374017
0.135987 -0.076246 0.630407
-0.073592 0.022735 0.478450
0.110682 -0.195381 0.649595
0.166063 -0.116055 0.533056
-0.071121 0.009549 0.365285
0.128280 -0.157826 0.715627
0.226769 -0.155011 0.593479
-0.029384 0.008653 0.574808
-0.332547 -0.229282 1.049547
-0.333215 -0.229648 1.051624
-0.300988 -0.157195 0.935101
0.143940 -0.118595 0.590690
-0.073732 0.012487 0.358313
0.258830 -0.086139 0.536156
-0.042075 0.020380 0.394940
-0.088898 -0.008403 0.525707
-0.155166 -0.111373 0.549972
-0.131657 0.018514 0.529758
0.024936 0.020999 0.357182
-0.170494 -0.027748 0.598309
0.013895 0.021275 0.346923
0.025606 0.020843 0.356807
0.056478 0.005080 0.567447
-0.083255 0.005158 0.510551
-0.124758 0.008234 0.549800
-0.133786 0.005978 0.560348
0.036313 -0.202259 1.152858
0.013136 0.007096 0.578995
0.022961 0.006291 0.558255
0.117534 0.005867 0.483046
0.051872 -0.339553 1.227764
0.125543 -0.044182 0.640993
0.292073 -0.100120 0.528606
0.115300 -0.025377 0.615124
0.387821 -0.096585 0.522460
0.108194 -0.033689 0.610632
0.138710 0.013312 0.508975
0.083674 -0.137518 0.666727
0.081498 -0.128128 0.641835
-0.082492 0.014486 0.363335
-0.001211 0.022445 0.315423
-0.095653 -0.044537 0.383518
0.121994 -0.130985 0.646219
0.387675 0.005407 0.521347
0.119892 -0.102634 0.532662
0.117426 -0.123215 0.636022
-0.126039 0.006485 0.548800
-0.087272 -0.028966 0.367550
0.123678 -0.124756 0.627225
0.104877 -0.060680 0.616514
0.094210 -0.078256 0.622109
-0.033966 0.018382 0.406763
-0.100286 0.011747 0.527910
0.073396 -0.174398 0.744518
0.043455 0.012925 0.465610
-0.125319 -0.134819 0.646212
0.108851 -0.174480 0.753924
0.008557 0.006448 0.357662
0.216489 -0.083219 0.530462
0.123327 -0.142682 0.653371
-0.294572 -0.338704 1.280720
-0.010615 0.019982 0.341206
-0.149980 -0.060464 0.520912
0.122241 -0.108428 0.552677
-0.128275 0.007394 0.521732
0.111384 0.008841 0.504820
-0.119252 -0.046606 0.531681
-0.032871 0.008843 0.573527
0.044612 -0.326543 1.120421
0.185483 -0.087713 0.534337
-0.060284 0.022486 0.434203
0.042451 -0.148915 0.628239
-0.017959 0.072825 0.453503
0.022477 -0.069771 0.428264
0.113874 -0.163358 0.766486
0.085771 -0.106496 0.561991
0.195606 -0.132003 0.565204
-0.010943 0.021935 0.351325
-0.077943 0.013099 0.362393
0.119052 0.008687 0.544894
0.195365 0.026550 0.450313
0.116726 -0.013560 0.646105
0.201161 0.004007 0.525377
0.123687 -0.107923 0.618304
-0.073088 0.022710 0.350971
-0.066581 0.021493 0.391834
0.099391 -0.124547 0.703444
0.086281 -0.027156 0.582305
-0.062256 0.015462 0.461273
0.104273 -0.029109 0.592164
0.052145 -0.137079 0.760835
-0.304293 -0.214356 1.043733
0.090583 -0.063577 0.667680
0.114682 -0.097509 0.622362
0.126766 -0.120763 0.665022
-0.269401 -0.229353 1.163316
-0.088976 -0.047878 0.533342
0.108963 -0.083102 0.618765
0.115279 -0.108114 0.668114
0.160952 -0.360612 1.396023
0.120166 -0.095693 0.621635
0.065535 0.051458 0.349918
-0.067308 0.023931 0.324756
-0.111161 -0.066661 0.602565
0.009713 -0.016332 0.566665
0.049521 -0.105307 0.717864
-0.070245 -0.156344 0.704399
0.111193 -0.124228 0.758722
0.111558 -0.061863 0.607814
0.118802 -0.116618 0.670177
0.102375 -0.401626 1.305328
-0.023606 0.022985 0.299582
0.067734 -0.173439 0.748125
0.095144 -0.057757 0.705730
0.118561 -0.097108 0.628082
0.147920 0.012884 0.483039
0.202341 -0.082330 0.525856
0.118118 -0.143566 0.681271
-0.114210 -0.143215 0.614049
0.131906 0.013553 0.508674
0.207616 -0.071198 0.525834
-0.066874 0.017601 0.471565
-0.050299 -0.001268 0.574740
0.016331 -0.000450 0.562486
0.023431 -0.092311 0.758706
0.097437 -0.208885 0.954300
-0.026725 0.023102 0.324787
0.123599 -0.106065 0.615055
-0.080017 -0.001219 0.383570
0.080569 -0.132547 0.652536
0.011511 -0.016545 0.581941
-0.307516 -0.173304 1.008616
0.046431 -0.149871 0.673312
0.004844 0.031835 0.571931
-0.078536 -0.033427 0.377424
0.013604 0.022259 0.310937
0.101900 -0.135436 0.634860
0.391391 0.004112 0.515599
0.387391 -0.089107 0.521280
0.105457 -0.064752 0.573501
0.116375 -0.076015 0.611427
0.116872 -0.078762 0.620212
0.118905 -0.098214 0.545638
0.217646 -0.118578 0.546946
-0.073494 0.006022 0.369659
-0.067465 0.022901 0.386262
0.035028 0.017177 0.391739
-0.073131 -0.010634 0.366810
0.021913 0.014453 0.477956
-0.070539 0.023014 0.384508
-0.012281 0.018429 0.398621
-0.127034 0.007856 0.554183
0.124329 -0.150595 0.631362
0.101296 -0.302750 1.226064
-0.298007 -0.311179 1.073212
0.122256 -0.041406 0.618111
0.006095 0.003739 0.591067
0.032859 -0.089082 0.664173
-0.010804 0.023759 0.310942
0.047411 0.015553 0.449184
-0.340788 -0.277831 1.395660
0.003933 0.023226 0.309237
0.194707 -0.094726 0.579705
0.105206 -0.061378 0.593190
0.123387 -0.009524 0.627456
0.124226 -0.109448 0.538790
-0.002212 0.022203 0.281349
0.035858 -0.171668 0.658257
-0.013812 0.023155 0.310999
0.128467 -0.137027 0.578389
0.119485 -0.135653 0.541882
-0.220144 -0.006599 0.570724
-0.010280 0.018319 0.385409
-0.175947 -0.195069 0.828310
