ply
format ascii 1.0
element vertex 611
property float x
property float y
property float z
property uchar red
property uchar green
property uchar blue
property float size
end_header
0.261679878587642 -0.011365397361564415 0.21028915058142286 144 238 144 0.5
0.2614908599909718 -0.011342451723019103 0.21029798821620274 144 238 144 0.5
0.26129912669774197 -0.011319288518157458 0.21030628533635132 144 238 144 0.5
0.261104755652425 -0.011295912616814499 0.21031405459728586 144 238 144 0.5
0.2609078237994933 -0.011272328888825235 0.2103213086544236 144 238 144 0.5
0.2607084080834177 -0.011248542204024485 0.21032806016318167 144 238 144 0.5
0.2605065854486708 -0.011224557432247255 0.21033432177897735 144 238 144 0.5
0.2603024328397244 -0.011200379443328494 0.2103401061572278 144 238 144 0.5
0.260096027201051 -0.011176013107103222 0.21034542595335032 144 238 144 0.5
0.25988744547712156 -0.011151463293406248 0.21035029382276202 144 238 144 0.5
0.2596767646124084 -0.01112673487207258 0.21035472242088016 144 238 144 0.5
0.25946406155138424 -0.011101832712937245 0.21035872440312187 144 238 144 0.5
0.25924941323851963 -0.011076761685835046 0.21036231242490452 144 238 144 0.5
0.25903289661828727 -0.011051526660600997 0.21036549914164523 144 238 144 0.5
0.2588145886351595 -0.011026132507070121 0.21036829720876118 144 238 144 0.5
0.2585945662336072 -0.011000584095077218 0.21037071928166964 144 238 144 0.5
0.25837290635810284 -0.010974886294457307 0.2103727780157878 144 238 144 0.5
0.25814968595311905 -0.010949043975045413 0.2103744860665329 144 238 144 0.5
0.2579249819631265 -0.01092306200667633 0.21037585608932208 144 238 144 0.5
0.2576988713325977 -0.010896945259185085 0.21037690073957263 144 238 144 0.5
0.2574714310060052 -0.01087069860240669 0.21037763267270168 144 238 144 0.5
0.25724273792781976 -0.010844326906175955 0.21037806454412655 144 238 144 0.5
0.25701286904251386 -0.01081783504032789 0.21037820900926432 144 238 144 0.5
0.2567819012945595 -0.010791227874697449 0.2103780787235323 144 238 144 0.5
0.2565499116284292 -0.010764510279119649 0.21037768634234766 144 238 144 0.5
0.2563169769885937 -0.010737687123429294 0.21037704452112765 144 238 144 0.5
0.25608317431952543 -0.0107107632774614 0.2103761659152894 144 238 144 0.5
0.2558485805656971 -0.010683743611050994 0.2103750631802503 144 238 144 0.5
0.25561327267157935 -0.010656632994032864 0.21037374897142733 144 238 144 0.5
0.2553773275816446 -0.010629436296242039 0.21037223594423782 144 238 144 0.5
0.2551408222403657 -0.010602158387513544 0.21037053675409897 144 238 144 0.5
0.254903833592213 -0.010574804137682168 0.21036866405642798 144 238 144 0.5
0.25466643858165927 -0.010547378416582936 0.21036663050664212 144 238 144 0.5
0.2544287141531771 -0.010519886094050876 0.21036444876015856 144 238 144 0.5
0.254190737251237 -0.010492332039920775 0.21036213147239444 144 238 144 0.5
0.2539525848203117 -0.010464721124027661 0.2103596912987671 144 238 144 0.5
0.2537143338048729 -0.010437058216206475 0.21035714089469365 144 238 144 0.5
0.2534760611493935 -0.010409348186292251 0.21035449291559133 144 238 144 0.5
0.2532378437983439 -0.01038159590411977 0.21035176001687733 144 238 144 0.5
0.2529997586961968 -0.010353806239524066 0.21034895485396898 144 238 144 0.5
0.25276188278742484 -0.010325984062340162 0.2103460900822834 144 238 144 0.5
0.2525242930164984 -0.010298134242402847 0.21034317835723773 144 238 144 0.5
0.25228706632789033 -0.010270261649547145 0.2103402323342493 144 238 144 0.5
0.2520502796660731 -0.010242371153608081 0.21033726466873529 144 238 144 0.5
0.2518140099755173 -0.010214467624420446 0.21033428801611287 144 238 144 0.5
0.2515783342006956 -0.010186555931819267 0.2103313150317993 144 238 144 0.5
0.25134332928608055 -0.010158640945639568 0.21032835837121178 144 238 144 0.5
0.2511090721761428 -0.010130727535716142 0.2103254306897675 144 238 144 0.5
0.25087563981535493 -0.010102820571884009 0.21032254464288366 144 238 144 0.5
0.25064310914818955 -0.010074924923978198 0.21031971288597753 144 238 144 0.5
0.2504115571191172 -0.010047045461833498 0.21031694807446627 144 238 144 0.5
0.2501810606726106 -0.010019187055284935 0.21031426286376712 144 238 144 0.5
0.24995169675314152 -0.009991354574167456 0.2103116699092973 144 238 144 0.5
0.24972354230518268 -0.009963552888316086 0.21030918186647396 144 238 144 0.5
0.24949667427320468 -0.009935786867565615 0.2103068113907144 144 238 144 0.5
0.2492711696016801 -0.009908061381751068 0.21030457113743575 144 238 144 0.5
0.24904710523508153 -0.009880381300707472 0.21030247376205527 144 238 144 0.5
0.24882455811787954 -0.009852751494269613 0.2103005319199901 144 238 144 0.5
0.24860360519454686 -0.009825176832272523 0.21029875826665756 144 238 144 0.5
0.24838432340955588 -0.00979766218455122 0.21029716545747484 144 238 144 0.5
0.2481667897073774 -0.0097702124209405 0.21029576614785908 144 238 144 0.5
0.24795108103248395 -0.009742832411275389 0.21029457299322757 144 238 144 0.5
0.24773727432934803 -0.009715527025390903 0.2102935986489974 144 238 144 0.5
0.24752544654244046 -0.009688301133121843 0.21029285577058593 144 238 144 0.5
0.2473156746162337 -0.00966115960430323 0.2102923570134103 144 238 144 0.5
0.24710803549519966 -0.00963410730877001 0.21029211503288775 144 238 144 0.5
0.24690260612381093 -0.00960714911635721 0.21029214248443542 144 238 144 0.5
0.2466994634465383 -0.00958028989689962 0.21029245202347063 144 238 144 0.5
0.2464986844078541 -0.009553534520232262 0.21029305630541048 144 238 144 0.5
0.24630034595223108 -0.009526887856190163 0.21029396798567226 144 238 144 0.5
0.2461045250241399 -0.00950035477460812 0.21029519971967314 144 238 144 0.5
0.24591129856805308 -0.00947394014532115 0.21029676416283036 144 238 144 0.5
0.2457207435284432 -0.009447648838164279 0.21029867397056115 144 238 144 0.5
0.24553293684978086 -0.009421485722972302 0.21030094179828263 144 238 144 0.5
0.24534795547653881 -0.009395455669580242 0.21030358030141216 144 238 144 0.5
0.24516587635318937 -0.00936956354782312 0.21030660213536675 144 238 144 0.5
0.24498677642420338 -0.009343814227535732 0.21031001995556378 144 238 144 0.5
0.24481073263405345 -0.009318212578553104 0.21031384641742043 144 238 144 0.5
0.2446378219272119 -0.009292763470710255 0.21031809417635383 144 238 144 0.5
0.24446812124814968 -0.00926747177384198 0.21032277588778125 144 238 144 0.5
0.24430170754133929 -0.009242342357783307 0.21032790420711997 144 238 144 0.5
0.2441386577512526 -0.009217380092369177 0.21033349178978705 144 238 144 0.5
0.24397904882236202 -0.009192589847434613 0.21033955129119983 144 238 144 0.5
0.24382295769913853 -0.009167976492814414 0.21034609536677545 144 238 144 0.5
0.24367046132605458 -0.009143544898343601 0.21035313667193115 144 238 144 0.5
0.24352163664758256 -0.009119299933857196 0.21036068786208414 144 238 144 0.5
0.24337656060819343 -0.009095246469189997 0.21036876159265164 144 238 144 0.5
0.24323531015235964 -0.009071389374177025 0.21037737051905084 144 238 144 0.5
0.24309796222455352 -0.009047733518653294 0.21038652729669893 144 238 144 0.5
0.2429645937692462 -0.00902428377245362 0.2103962445810132 144 238 144 0.5
0.24283528173090999 -0.00900104500541301 0.21040653502741083 144 238 144 0.5
0.2427101030540172 -0.008978022087366483 0.21041741129130892 144 238 144 0.5
0.24258913468303908 -0.008955219888148852 0.21042888602812485 144 238 144 0.5
0.24247245356244787 -0.008932643277595126 0.21044097189327574 144 238 144 0.5
0.2423601366367158 -0.008910297125540322 0.21045368154217878 144 238 144 0.5
0.24225226085031426 -0.008888186301819258 0.21046702763025127 144 238 144 0.5
0.24214890314771548 -0.008866315676266945 0.2104810228129104 144 238 144 0.5
0.24205014047339135 -0.008844690118718326 0.2104956797455733 144 238 144 0.5
0.2419560497718141 -0.008823314499008413 0.21051101108365725 144 238 144 0.5
0.24186670798745513 -0.00880219368697203 0.21052702948257945 144 238 144 0.5
0.24178219100246764 -0.008781332530467997 0.2105437473724072 144 238 144 0.5
0.24170251600280832 -0.00876073466310727 0.2105611647319725 144 238 144 0.5
0.24162761198229865 -0.00874040189407047 0.21057926283189346 144 238 144 0.5
0.24155740066497638 -0.008720335882148414 0.21059802140064732 144 238 144 0.5
0.24149180377487914 -0.008700538286131905 0.21061742016671117 144 238 144 0.5
0.24143074303604403 -0.008681010764811588 0.21063743885856254 144 238 144 0.5
0.24137414017250855 -0.008661754976978266 0.21065805720467842 144 238 144 0.5
0.2413219169083104 -0.008642772581422745 0.2106792549335361 144 238 144 0.5
0.24127399496748664 -0.00862406523693567 0.21070101177361292 144 238 144 0.5
0.24123029607407498 -0.008605634602307845 0.21072330745338605 144 238 144 0.5
0.24119074195211276 -0.008587482336330027 0.2107461217013328 144 238 144 0.5
0.24115525432563756 -0.008569610097793015 0.21076943424593028 144 238 144 0.5
0.24112375491868657 -0.008552019545487458 0.21079322481565588 144 238 144 0.5
0.2410961654552974 -0.00853471233820416 0.21081747313898674 144 238 144 0.5
0.24107240765950755 -0.008517690134733925 0.21084215894440012 144 238 144 0.5
0.24105240325535424 -0.008500954593867401 0.2108672619603734 144 238 144 0.5
0.24103607396687507 -0.008484507374395394 0.21089276191538364 144 238 144 0.5
0.2410233415181075 -0.008468350135108698 0.2109186385379081 144 238 144 0.5
0.24101412763308883 -0.008452484534797975 0.2109448715564242 144 238 144 0.5
0.24100835403585655 -0.008436912232254023 0.210971440699409 144 238 144 0.5
0.24100594245044824 -0.008421634886267635 0.21099832569533972 144 238 144 0.5
0.2410068146009012 -0.00840665415562948 0.21102550627269379 144 238 144 0.5
0.2410108922112529 -0.00839197169913035 0.2110529621599484 144 238 144 0.5
0.24101809700554072 -0.008377589175561037 0.21108067308558057 144 238 144 0.5
0.24102835070780232 -0.008363508243712216 0.21110861877806789 144 238 144 0.5
0.24104157504207482 -0.008349730562374673 0.21113677896588742 144 238 144 0.5
0.2410576917323959 -0.008336257790339164 0.21116513337751638 144 238 144 0.5
0.24107662250280287 -0.008323091586396481 0.21119366174143198 144 238 144 0.5
0.2410982890773333 -0.008310233609337293 0.21122234378611163 144 238 144 0.5
0.2411226131800245 -0.008297685517952395 0.21125115924003243 144 238 144 0.5
0.24114951653491398 -0.008285448971032576 0.21128008783167165 144 238 144 0.5
0.24117892086603918 -0.008273525627368512 0.21130910928950658 144 238 144 0.5
0.24121074789743754 -0.008261917145750992 0.21133820334201445 144 238 144 0.5
0.2412449193531464 -0.008250625184970802 0.21136734971767246 144 238 144 0.5
0.24128135695720332 -0.008239651403818625 0.21139652814495793 144 238 144 0.5
0.24131998243364577 -0.008228997461085252 0.21142571835234808 144 238 144 0.5
0.24136071750651097 -0.008218665015561457 0.21145490006832 144 238 144 0.5
0.24140348389983665 -0.008208655726037935 0.21148405302135112 144 238 144 0.5
0.24144820333766012 -0.008198971251305472 0.21151315693991868 144 238 144 0.5
0.24149479754401884 -0.008189613250154817 0.2115421915524999 144 238 144 0.5
0.24154318824295004 -0.008180583381376744 0.21157113658757187 144 238 144 0.5
0.2415932971584915 -0.008171883303761958 0.21159997177361206 144 238 144 0.5
0.24164504601468054 -0.008163514676101236 0.2116286768390976 144 238 144 0.5
0.24169835653555433 -0.008155479157185348 0.21165723151250568 144 238 144 0.5
0.24175315044515078 -0.008147778405805006 0.21168561552231366 144 238 144 0.5
0.241809349467507 -0.008140414080750983 0.21171380859699876 144 238 144 0.5
0.24186687532666046 -0.008133387840814047 0.21174179046503805 144 238 144 0.5
0.2419256497466488 -0.008126701344784918 0.21176954085490907 144 238 144 0.5
0.2419855944515093 -0.00812035625145436 0.2117970394950889 144 238 144 0.5
0.24204663116527925 -0.008114354219613144 0.21182426611405472 144 238 144 0.5
0.24210868161199642 -0.008108696908051992 0.2118512004402839 144 238 144 0.5
0.24217166751569819 -0.008103385975561666 0.21187782220225365 144 238 144 0.5
0.24223551060042164 -0.008098423080932938 0.2119041111284411 144 238 144 0.5
0.24230013259020466 -0.008093809882956526 0.2119300469473237 144 238 144 0.5
0.24236545520908453 -0.008089548040423201 0.21195560938737856 144 238 144 0.5
0.24243140018109866 -0.008085639212123715 0.21198077817708297 144 238 144 0.5
0.2424978892302843 -0.008082085056848825 0.21200553304491407 144 238 144 0.5
0.24256484408067924 -0.008078887233389266 0.2120298537193492 144 238 144 0.5
0.24263218645632084 -0.008076047400535804 0.21205371992886568 144 238 144 0.5
0.24269983808124623 -0.008073567217079186 0.21207711140194052 144 238 144 0.5
0.24276772067949326 -0.008071448341810162 0.2121000078670512 144 238 144 0.5
0.2428357559750992 -0.008069692433519486 0.21212238905267486 144 238 144 0.5
0.2429038656921013 -0.00806830115099791 0.21214423468728866 144 238 144 0.5
0.24297197155453734 -0.008067276153036184 0.21216552449937004 144 238 144 0.5
0.24303999528644465 -0.008066619098425062 0.2121862382173961 144 238 144 0.5
0.2431078586118604 -0.008066331645955297 0.2122063555698441 144 238 144 0.5
0.2431754832548225 -0.008066415454417636 0.21222585628519133 144 238 144 0.5
0.24324279093936807 -0.008066872182602837 0.21224472009191503 144 238 144 0.5
0.24330970338953464 -0.008067703489301647 0.21226292671849242 144 238 144 0.5
0.2433761423293595 -0.008068911033304817 0.21228045589340067 144 238 144 0.5
0.2434420294828804 -0.008070496473403105 0.21229728734511719 144 238 144 0.5
0.24350728657413453 -0.008072461468387259 0.2123134008021191 144 238 144 0.5
0.24357183532715926 -0.008074807677048025 0.21232877599288358 144 238 144 0.5
0.24363559746599237 -0.008077536758176167 0.2123433926458881 144 238 144 0.5
0.24369849471467117 -0.008080650370562435 0.21235723048960975 144 238 144 0.5
0.24376044879723277 -0.008084150172997564 0.21237026925252575 144 238 144 0.5
0.24382138143771503 -0.008088037824272329 0.21238248866311343 144 238 144 0.5
0.24388121436015525 -0.00809231498317747 0.21239386844984998 144 238 144 0.5
0.24393986928859074 -0.008096983308503728 0.21240438834121264 144 238 144 0.5
0.24399726794705914 -0.00810204445904188 0.21241402806567866 144 238 144 0.5
0.24405333205959784 -0.008107500093582668 0.21242276735172533 144 238 144 0.5
0.24410798335024408 -0.008113351870916823 0.21243058592782982 144 238 144 0.5
0.24416114354303564 -0.00811960144983513 0.21243746352246942 144 238 144 0.5
0.2442127343620098 -0.008126250489128328 0.2124433798641214 144 238 144 0.5
0.24426267753120393 -0.008133300647587164 0.21244831468126293 144 238 144 0.5
0.2443108947746554 -0.008140753584002371 0.21245224770237126 144 238 144 0.5
0.24435730781640194 -0.008148610957164747 0.21245515865592374 144 238 144 0.5
0.24440183838048082 -0.008156874425865018 0.2124570272703975 144 238 144 0.5
0.2444444081909293 -0.00816554564889391 0.21245783327426981 144 238 144 0.5
0.24448493897178517 -0.008174626285042228 0.21245755639601793 144 238 144 0.5
0.2445233524470857 -0.008184117993100698 0.21245617636411912 144 238 144 0.5
0.24455957034086823 -0.008194022431860043 0.21245367290705056 144 238 144 0.5
0.24459351437717042 -0.008204341260111072 0.21245002575328958 144 238 144 0.5
0.24462510628002954 -0.008215076136644508 0.2124452146313133 144 238 144 0.5
0.244654267773483 -0.00822622872025107 0.21243921926959913 144 238 144 0.5
0.24468092058156848 -0.008237800669721575 0.2124320193966242 144 238 144 0.5
0.24470498642832322 -0.008249793643846743 0.21242359474086578 144 238 144 0.5
0.24472638703778465 -0.008262209301417326 0.2124139250308011 144 238 144 0.5
0.24474504413399029 -0.00827504930122404 0.21240298999490737 144 238 144 0.5
0.24476087944097757 -0.008288315302057708 0.21239076936166193 144 238 144 0.5
0.24477381468278392 -0.008302008962709046 0.21237724285954196 144 238 144 0.5
0.24478378221476624 -0.008316130785023471 0.21236239451690447 144 238 144 0.5
0.2447907814758429 -0.008330673970528793 0.21234623549432133 144 238 144 0.5
0.24479483799959573 -0.008345628881020705 0.21232878750645556 144 238 144 0.5
0.24479597737803224 -0.008360985871936753 0.21231007229160087 144 238 144 0.5
0.24479422520316008 -0.008376735298714627 0.21229011158805064 144 238 144 0.5
0.24478960706698677 -0.008392867516791877 0.21226892713409853 144 238 144 0.5
0.24478214856152 -0.008409372881606052 0.2122465406680381 144 238 144 0.5
0.24477187527876723 -0.00842624174859484 0.21222297392816286 144 238 144 0.5
0.2447588128107361 -0.008443464473195795 0.21219824865276643 144 238 144 0.5
0.2447429867494342 -0.008461031410846458 0.21217238658014242 144 238 144 0.5
0.244724422686869 -0.008478932916984525 0.21214540944858418 144 238 144 0.5
0.24470314621504827 -0.00849715934704755 0.21211733899638555 144 238 144 0.5
0.24467918292597943 -0.008515701056473122 0.21208819696183998 144 238 144 0.5
0.24465255841167022 -0.008534548400698784 0.212058005083241 144 238 144 0.5
0.24462329826412804 -0.008553691735162242 0.21202678509888223 144 238 144 0.5
0.24459142807536052 -0.008573121415301036 0.21199455874705708 144 238 144 0.5
0.24455697343737548 -0.008592827796552708 0.21196134776605946 144 238 144 0.5
0.24451995994218004 -0.008612801234354966 0.21192717389418259 144 238 144 0.5
0.24448041318178218 -0.008633032084145347 0.21189205886972015 144 238 144 0.5
0.24443835874818937 -0.008653510701361392 0.21185602443096585 144 238 144 0.5
0.24439382223340905 -0.008674227441440816 0.211819092316213 144 238 144 0.5
0.24434682922944898 -0.008695172659821148 0.21178128426375528 144 238 144 0.5
0.2442974053283167 -0.008716336711939932 0.21174262201188637 144 238 144 0.5
0.24424557612201964 -0.008737709953234885 0.21170312729889962 144 238 144 0.5
0.2441913672025656 -0.008759282739143538 0.21166282186308874 144 238 144 0.5
0.24413480416196215 -0.008781045425103428 0.21162172744274732 144 238 144 0.5
0.2440759125922166 -0.008802988366552272 0.21157986577616875 144 238 144 0.5
0.24401471808533676 -0.008825101918927606 0.21153725860164674 144 238 144 0.5
0.24395124623333017 -0.00884737643766703 0.21149392765747482 144 238 144 0.5
0.2438855226282045 -0.008869802278208069 0.21144989468194667 144 238 144 0.5
0.24381757286196717 -0.008892369795988455 0.2114051814133556 144 238 144 0.5
0.24374742252662582 -0.008915069346445715 0.2113598095899953 144 238 144 0.5
0.24367509721418817 -0.00893789128501738 0.2113138009501595 144 238 144 0.5
0.2436006225166615 -0.008960825967141177 0.2112671772321415 144 238 144 0.5
0.24352402402605353 -0.008983863748254634 0.211219960174235 144 238 144 0.5
0.24344532733437219 -0.009006994983795289 0.2111721715147337 144 238 144 0.5
0.24336455803362447 -0.009030210029200863 0.2111238329919308 144 238 144 0.5
0.2432817417158182 -0.009053499239908887 0.21107496634412012 144 238 144 0.5
0.2431969039729612 -0.009076852971356894 0.21102559330959528 144 238 144 0.5
0.24311007039706067 -0.009100261578982614 0.21097573562664967 144 238 144 0.5
0.24302126658012432 -0.009123715418223571 0.2109254150335769 144 238 144 0.5
0.24293051811415972 -0.009147204844517365 0.21087465326867053 144 238 144 0.5
0.2428378505911748 -0.009170720213301523 0.21082347207022434 144 238 144 0.5
0.2427432896031766 -0.009194251880013776 0.21077189317653153 144 238 144 0.5
0.2426468607421729 -0.009217790200091655 0.2107199383258859 144 238 144 0.5
0.24254858960017162 -0.009241325528972687 0.2106676292565811 144 238 144 0.5
0.2424485017691798 -0.0092648482220946 0.21061498770691042 144 238 144 0.5
0.2423466228412052 -0.00928834863489493 0.21056203541516758 144 238 144 0.5
0.24224297840825573 -0.009311817122811199 0.21050879411964615 144 238 144 0.5
0.2421375940623385 -0.00933524404128114 0.21045528555863965 144 238 144 0.5
0.24203049539546123 -0.009358619745742284 0.21040153147044166 144 238 144 0.5
0.24192170799963195 -0.009381934591632156 0.21034755359334592 144 238 144 0.5
0.24181125746685747 -0.009405178934388489 0.2102933736656456 144 238 144 0.5
0.2416991693891458 -0.009428343129448812 0.21023901342563456 144 238 144 0.5
0.24158546935850478 -0.009451417532250653 0.2101844946116064 144 238 144 0.5
0.24147018296694137 -0.009474392498231742 0.21012983896185444 144 238 144 0.5
0.2413533358064635 -0.00949725838282961 0.21007506821467242 144 238 144 0.5
0.2412349534690787 -0.00952000554148185 0.21002020410835384 144 238 144 0.5
0.24111506154679488 -0.009542624329625996 0.20996526838119245 144 238 144 0.5
0.24099368563161908 -0.009565105102699775 0.20991028277148155 144 238 144 0.5
0.240870851315559 -0.009587438216140713 0.2098552690175148 144 238 144 0.5
0.24074658419062273 -0.009609614025386347 0.20980024885758594 144 238 144 0.5
0.24062090984881707 -0.009631622885874398 0.20974524402998815 144 238 144 0.5
0.24049385388215 -0.009653455153042402 0.2096902762730153 144 238 144 0.5
0.24036544188262945 -0.009675101182327887 0.20963536732496102 144 238 144 0.5
0.24023569944226236 -0.009696551329168579 0.20958053892411857 144 238 144 0.5
0.24010465215305649 -0.00971779594900201 0.2095258128087817 144 238 144 0.5
0.23997232560701992 -0.009738825397265716 0.20947121071724406 144 238 144 0.5
0.23983874539615946 -0.009759630029397412 0.20941675438779894 144 238 144 0.5
0.2397039371124831 -0.009780200200834636 0.2093624655587401 144 238 144 0.5
0.2395679263479983 -0.009800526267014982 0.20930836596836108 144 238 144 0.5
0.2394307386947132 -0.009820598583375991 0.20925447735495556 144 238 144 0.5
0.23929239974463445 -0.009840407505355373 0.20920082145681684 144 238 144 0.5
0.23915293508977012 -0.009859943388390665 0.2091474200122387 144 238 144 0.5
0.23901237032212816 -0.009879196587919413 0.20909429475951471 144 238 144 0.5
0.23887073103371534 -0.009898157459379317 0.20904146743693824 144 238 144 0.5
0.23872804281653967 -0.009916816358207924 0.20898895978280296 144 238 144 0.5
0.23858433126260908 -0.00993516363984277 0.20893679353540262 144 238 144 0.5
0.23843962196393037 -0.009953189659721562 0.20888499043303044 144 238 144 0.5
0.23829394051251157 -0.009970884773281846 0.20883357221398016 144 238 144 0.5
0.23814731250036061 -0.009988239335961161 0.20878256061654554 144 238 144 0.5
0.23799976351948426 -0.010005243703197208 0.20873197737901975 144 238 144 0.5
0.23785131916189053 -0.01002188823042753 0.20868184423969652 144 238 144 0.5
0.23770200501958744 -0.010038163273089682 0.20863218293686964 144 238 144 0.5
0.23755184668458168 -0.010054059186621346 0.20858301520883232 144 238 144 0.5
0.23740086974888128 -0.010069566326460075 0.2085343627938783 144 238 144 0.5
0.23724909980449385 -0.010084675048043466 0.20848624743030114 144 238 144 0.5
0.2370965624434273 -0.01009937570680907 0.20843869085639452 144 238 144 0.5
0.23694328325768851 -0.010113658658194573 0.20839171481045174 144 238 144 0.5
0.23678928783928532 -0.010127514257637525 0.20834534103076652 144 238 144 0.5
0.23663460178022588 -0.010140932860575484 0.20829959125563258 144 238 144 0.5
0.23647925067251682 -0.010153904822446122 0.20825448722334317 144 238 144 0.5
0.23632326010816618 -0.010166420498686997 0.20821005067219195 144 238 144 0.5
0.23616665567918202 -0.010178470244735673 0.2081663033404727 144 238 144 0.5
0.23600946297757094 -0.010190044416029812 0.20812326696647868 144 238 144 0.5
0.23585170759534108 -0.010201133368006977 0.20808096328850362 144 238 144 0.5
0.23569341512450043 -0.01021172745610474 0.20803941404484116 144 238 144 0.5
0.2355346111570556 -0.010221817035760743 0.20799864097378462 144 238 144 0.5
0.23537532128501468 -0.010231392462412564 0.20795866581362776 144 238 144 0.5
0.23521557110038532 -0.010240444091497795 0.2079195103026641 144 238 144 0.5
0.23505538615190297 -0.010248962403352642 0.2078811959486531 144 238 144 0.5
0.2348947897551221 -0.010256944324010808 0.2078437323620788 144 238 144 0.5
0.23473380195825624 -0.010264396210138664 0.207807111746646 144 238 144 0.5
0.23457244254997817 -0.01027132516752322 0.20777132492335496 144 238 144 0.5
0.23441073131895937 -0.010277738301951557 0.20773636271320586 144 238 144 0.5
0.23424868805387272 -0.010283642719210688 0.2077022159371991 144 238 144 0.5
0.2340863325433909 -0.01028904552508763 0.20766887541633489 144 238 144 0.5
0.23392368457618548 -0.010293953825369448 0.2076363319716134 144 238 144 0.5
0.23376076394092923 -0.010298374725843166 0.20760457642403507 144 238 144 0.5
0.23359759042629494 -0.010302315332295805 0.20757359959460012 144 238 144 0.5
0.23343418382095407 -0.010305782750514423 0.20754339230430868 144 238 144 0.5
0.23327056391357948 -0.01030878408628604 0.20751394537416115 144 238 144 0.5
0.2331067504928439 -0.010311326445397688 0.20748524962515788 144 238 144 0.5
0.23294276334741887 -0.010313416933636412 0.20745729587829892 144 238 144 0.5
0.23277862226597718 -0.010315062656789248 0.20743007495458465 144 238 144 0.5
0.23261434703719117 -0.010316270720643223 0.20740357767501533 144 238 144 0.5
0.23244995744973365 -0.010317048230985369 0.20737779486059132 144 238 144 0.5
0.23228547329227608 -0.01031740229360273 0.2073527173323127 144 238 144 0.5
0.2321209143534913 -0.010317340014282337 0.20732833591117988 144 238 144 0.5
0.2319563004220521 -0.010316868498811227 0.20730464141819316 144 238 144 0.5
0.23179165128662993 -0.01031599485297643 0.20728162467435263 144 238 144 0.5
0.2316269867358976 -0.010314726182564982 0.2072592765006587 144 238 144 0.5
0.23146232655852794 -0.010313069593363925 0.20723758771811163 144 238 144 0.5
0.23129769054319235 -0.010311032191160282 0.2072165491477116 144 238 144 0.5
0.23113309847856375 -0.010308621081741095 0.20719615161045893 144 238 144 0.5
0.23096857015331487 -0.010305843370893407 0.207176385927354 144 238 144 0.5
0.23080412535611713 -0.010302706164404232 0.20715724291939683 144 238 144 0.5
0.23063978387564352 -0.01029921656806062 0.2071387134075879 144 238 144 0.5
0.23047556550056614 -0.010295381687649598 0.2071207882129274 144 238 144 0.5
0.23031149001955803 -0.010291208628958218 0.20710345815641562 144 238 144 0.5
0.23014757722129048 -0.01028670449777349 0.20708671405905277 144 238 144 0.5
0.2299838468944364 -0.010281876399882461 0.20707054674183922 144 238 144 0.5
0.22982031882766865 -0.01027673144107218 0.20705494702577523 144 238 144 0.5
0.22965701280965856 -0.010271276727129651 0.2070399057318609 144 238 144 0.5
0.229493948629079 -0.010265519363841928 0.20702541368109662 144 238 144 0.5
0.2293311460746028 -0.010259466456996059 0.20701146169448278 144 238 144 0.5
0.22916862493490134 -0.010253125112379047 0.2069980405930194 144 238 144 0.5
0.22900640499864755 -0.010246502435777937 0.2069851411977069 144 238 144 0.5
0.22884450605451417 -0.010239605532979795 0.20697275432954557 144 238 144 0.5
0.2286829478911726 -0.010232441509771607 0.20696087080953554 144 238 144 0.5
0.2285217502972958 -0.010225017471940432 0.20694948145867723 144 238 144 0.5
0.2283609330615565 -0.010217340525273328 0.20693857709797084 144 238 144 0.5
0.22820051597262603 -0.01020941777555728 0.20692814854841657 144 238 144 0.5
0.22804051881917745 -0.010201256328579352 0.20691818663101483 144 238 144 0.5
0.22788096138988298 -0.010192863290126574 0.20690868216676575 144 238 144 0.5
0.22772186347341536 -0.010184245765986004 0.20689962597666972 144 238 144 0.5
0.22756324485844623 -0.010175410861944635 0.20689100888172696 144 238 144 0.5
0.2274051253336483 -0.010166365683789518 0.20688282170293765 144 238 144 0.5
0.22724752468769432 -0.01015711733730772 0.20687505526130218 144 238 144 0.5
0.22709046270925587 -0.01014767292828622 0.2068677003778208 144 238 144 0.5
0.2269339591870057 -0.010138039562512082 0.2068607478734937 144 238 144 0.5
0.2267780339096166 -0.010128224345772366 0.20685418856932125 144 238 144 0.5
0.2266227066657601 -0.010118234383854053 0.20684801328630362 144 238 144 0.5
0.22646799724410893 -0.010108076782544205 0.2068422128454412 144 238 144 0.5
0.22631392543333595 -0.010097758647629886 0.20683677806773415 144 238 144 0.5
0.22616051102211263 -0.010087287084898072 0.20683169977418275 144 238 144 0.5
0.22600777379911172 -0.010076669200135826 0.2068269687857873 144 238 144 0.5
0.22585573355300603 -0.010065912099130216 0.20682257592354808 144 238 144 0.5
0.2257044100724671 -0.010055022887668212 0.2068185120084653 144 238 144 0.5
0.22555382314616773 -0.010044008671536889 0.2068147678615393 144 238 144 0.5
0.2254039925627802 -0.010032876556523266 0.20681133430377027 144 238 144 0.5
0.22525493811097738 -0.010021633648414421 0.20680820215615855 144 238 144 0.5
0.22510667957943073 -0.010010287052997327 0.20680536223970436 144 238 144 0.5
0.22495923675681306 -0.009998843876059042 0.20680280537540802 144 238 144 0.5
0.22481262943179708 -0.009987311223386636 0.20680052238426974 144 238 144 0.5
0.22466687739305438 -0.009975696200767084 0.2067985040872898 144 238 144 0.5
0.22452200042925774 -0.009964005913987448 0.20679674130546846 144 238 144 0.5
0.22437801832907997 -0.009952247468834798 0.20679522485980611 144 238 144 0.5
0.2242349508811925 -0.0099404279710961 0.20679394557130276 144 238 144 0.5
0.22409281787426813 -0.009928554526558426 0.20679289426095893 144 238 144 0.5
0.22395163909697974 -0.009916634241008844 0.2067920617497748 144 238 144 0.5
0.2238114343379987 -0.009904674220234319 0.20679143885875062 144 238 144 0.5
0.2236722233859979 -0.009892681570021922 0.20679101640888664 144 238 144 0.5
0.2235340260296497 -0.009880663396158685 0.2067907852211832 144 238 144 0.5
0.22339686205762677 -0.00986862680443168 0.20679073611664048 144 238 144 0.5
0.22326075125860073 -0.009856578900627869 0.2067908599162588 144 238 144 0.5
0.22312571342124435 -0.009844526790534327 0.20679114744103838 144 238 144 0.5
0.22299176833423037 -0.009832477579938118 0.2067915895119796 144 238 144 0.5
0.22285893578623037 -0.009820438374626213 0.2067921769500826 144 238 144 0.5
0.22272723556591711 -0.009808416280385675 0.20679290057634775 144 238 144 0.5
0.2225966874619633 -0.00979641840300358 0.2067937512117752 144 238 144 0.5
0.22246731126304053 -0.009784451848266887 0.20679471967736532 144 238 144 0.5
0.2223391267578216 -0.009772523721962672 0.20679579679411839 144 238 144 0.5
0.2222121537349792 -0.009760641129878001 0.2067969733830346 144 238 144 0.5
0.22208641198318493 -0.009748811177799839 0.20679824026511423 144 238 144 0.5
0.2219619212911116 -0.009737040971515258 0.2067995882613576 144 238 144 0.5
0.22183870144743184 -0.009725337616811321 0.20680100819276495 144 238 144 0.5
0.22171677224081732 -0.009713708219475006 0.20680249088033656 144 238 144 0.5
0.22159615345994077 -0.00970215988529337 0.20680402714507265 144 238 144 0.5
0.22147686489347457 -0.009690699720053455 0.20680560780797358 144 238 144 0.5
0.22135892633009138 -0.009679334829542325 0.20680722369003945 144 238 144 0.5
0.2212423575584629 -0.009668072319546951 0.20680886561227071 144 238 144 0.5
0.22112717836726178 -0.009656919295854402 0.20681052439566755 144 238 144 0.5
0.2210134085451608 -0.009645882864251743 0.20681219086123026 144 238 144 0.5
0.2209010678808316 -0.009634970130525944 0.20681385582995906 144 238 144 0.5
0.22079017616294694 -0.009624188200464073 0.2068155101228543 144 238 144 0.5
0.22068075318017935 -0.009613544179853193 0.2068171445609161 144 238 144 0.5
0.22057281872120071 -0.009603045174480284 0.2068187499651449 144 238 144 0.5
0.22046639257468362 -0.009592698290132404 0.20682031715654087 144 238 144 0.5
0.2203614945293008 -0.009582510632596623 0.2068218369561043 144 238 144 0.5
0.2202581443737239 -0.009572489307659913 0.20682330018483547 144 238 144 0.5
0.22015635804863715 -0.009562640513364943 0.20682469858968988 144 238 144 0.5
0.2200561279573199 -0.009552964895256786 0.2068260295815131 144 238 144 0.5
0.21995743760646302 -0.009543461000166176 0.20682729271196876 144 238 144 0.5
0.2198602704861558 -0.009534127371007683 0.20682848753671512 144 238 144 0.5
0.21976461008648857 -0.009524962550695959 0.2068296136114104 144 238 144 0.5
0.2196704398975513 -0.009515965082145647 0.2068306704917129 144 238 144 0.5
0.21957774340943356 -0.009507133508271327 0.2068316577332809 144 238 144 0.5
0.21948650411222545 -0.009498466371987641 0.20683257489177262 144 238 144 0.5
0.21939670549601717 -0.009489962216209237 0.20683342152284645 144 238 144 0.5
0.2193083310508982 -0.009481619583850697 0.20683419718216053 144 238 144 0.5
0.21922136426695868 -0.009473437017826662 0.2068349014253732 144 238 144 0.5
0.21913578863428873 -0.009465413061051777 0.20683553380814274 144 238 144 0.5
0.21905158764297783 -0.009457546256440623 0.20683609388612728 144 238 144 0.5
0.21896874478311623 -0.009449835146907845 0.20683658121498533 144 238 144 0.5
0.21888724354479386 -0.009442278275368086 0.20683699535037495 144 238 144 0.5
0.21880706741810044 -0.00943487418473593 0.2068373358479545 144 238 144 0.5
0.21872819989312597 -0.009427621417926019 0.20683760226338227 144 238 144 0.5
0.21865062445996045 -0.009420518517852975 0.2068377941523165 144 238 144 0.5
0.21857432460869397 -0.009413564027431444 0.2068379110704154 144 238 144 0.5
0.21849928382941605 -0.009406756489576005 0.20683795257333737 144 238 144 0.5
0.21842548561221684 -0.009400094447201307 0.20683791821674055 144 238 144 0.5
0.21835291344718635 -0.009393576443221988 0.20683780755628325 144 238 144 0.5
0.21828155082441436 -0.009387201020552636 0.20683762014762383 144 238 144 0.5
0.21821138123399073 -0.00938096672210789 0.20683735554642038 144 238 144 0.5
0.21814238816600576 -0.009374872090802393 0.20683701330833135 144 238 144 0.5
0.2180745551105489 -0.009368915669550731 0.20683659298901497 144 238 144 0.5
0.21800786555771026 -0.009363096001267548 0.20683609414412937 144 238 144 0.5
0.21794230299758 -0.00935741162886748 0.20683551632933297 144 238 144 0.5
0.21787785092024767 -0.00935186109526512 0.206834859100284 144 238 144 0.5
0.21781449281580334 -0.009346442943375107 0.2068341220126407 144 238 144 0.5
0.217752212174337 -0.009341155716112064 0.2068333046220614 144 238 144 0.5
0.21769099248593865 -0.009335997956390629 0.20683240648420434 144 238 144 0.5
0.217630817240698 -0.009330968207125392 0.20683142715472766 144 238 144 0.5
0.21757166992870497 -0.009326065011230997 0.2068303661892898 144 238 144 0.5
0.21751353404004983 -0.009321286911622078 0.20682922314354907 144 238 144 0.5
0.21745639306482206 -0.00931663245121323 0.20682799757316353 144 238 144 0.5
0.21740023049311186 -0.009312100172919092 0.20682668903379162 144 238 144 0.5
0.21734502981500925 -0.0093076886196543 0.20682529708109157 144 238 144 0.5
0.2172907745206038 -0.00930339633433345 0.20682382127072166 144 238 144 0.5
0.21723744809998569 -0.009299221859871178 0.20682226115834007 144 238 144 0.5
0.2171850340432448 -0.009295163739182117 0.20682061629960513 144 238 144 0.5
0.217133515840471 -0.009291220515180873 0.20681888625017514 144 238 144 0.5
0.21708287698175424 -0.009287390730782073 0.20681707056570836 144 238 144 0.5
0.21703310095718464 -0.009283672928900357 0.20681516880186307 144 238 144 0.5
0.2169841712568517 -0.009280065652450323 0.20681318051429742 144 238 144 0.5
0.21693607137084564 -0.009276567444346611 0.20681110525866978 144 238 144 0.5
0.21688878478925638 -0.009273176847503837 0.2068089425906385 144 238 144 0.5
0.21684229500217392 -0.009269892404836636 0.20680669206586172 144 238 144 0.5
0.21679658549968792 -0.009266712659259614 0.20680435323999774 144 238 144 0.5
0.21675163977188847 -0.0092636361536874 0.2068019256687048 144 238 144 0.5
0.2167074413088656 -0.009260661431034628 0.2067994089076413 144 238 144 0.5
0.216663973600709 -0.009257787034215904 0.20679680251246535 144 238 144 0.5
0.2166212201375087 -0.00925501150614586 0.2067941060388353 144 238 144 0.5
0.21657916440935476 -0.00925233338973913 0.20679131904240944 144 238 144 0.5
0.21653778990633687 -0.009249751227910316 0.20678844107884597 144 238 144 0.5
0.21649708011854504 -0.00924726356357405 0.20678547170380318 144 238 144 0.5
0.21645701853606938 -0.009244868939644964 0.20678241047293944 144 238 144 0.5
0.21641758864899957 -0.00924256589903767 0.2067792569419129 144 238 144 0.5
0.21637877394742555 -0.00924035298466679 0.2067760106663818 144 238 144 0.5
0.2163405579214373 -0.009238228739446954 0.2067726712020045 144 238 144 0.5
0.216302924061125 -0.009236191706292791 0.2067692381044393 144 238 144 0.5
0.21626585585657815 -0.00923424042811891 0.20676571092934437 144 238 144 0.5
0.2162293367978869 -0.009232373447839937 0.20676208923237802 144 238 144 0.5
0.21619335037514117 -0.009230589308370509 0.20675837256919852 144 238 144 0.5
0.21615788007843084 -0.009228886552625229 0.20675456049546415 144 238 144 0.5
0.21612290939784579 -0.009227263723518732 0.20675065256683314 144 238 144 0.5
0.21608842182347615 -0.009225719363965644 0.20674664833896386 144 238 144 0.5
0.21605440084541158 -0.009224252016880579 0.20674254736751443 144 238 144 0.5
0.21602082995374217 -0.009222860225178164 0.2067383492081432 144 238 144 0.5
0.21598769263855788 -0.009221542531773028 0.20673405341650855 144 238 144 0.5
0.21595497238994846 -0.009220297479579784 0.20672965954826855 144 238 144 0.5
0.21592265269800393 -0.009219123611513058 0.20672516715908154 144 238 144 0.5
0.2158907170528143 -0.009218019470487483 0.20672057580460584 144 238 144 0.5
0.21585914894446934 -0.009216983599417668 0.20671588504049968 144 238 144 0.5
0.21582793186305907 -0.009216014541218245 0.20671109442242133 144 238 144 0.5
0.21579704929867338 -0.009215110838803834 0.20670620350602906 144 238 144 0.5
0.21576648474140228 -0.00921427103508906 0.20670121184698115 144 238 144 0.5
0.2157362216813356 -0.009213493672988545 0.2066961190009359 144 238 144 0.5
0.21570624360856325 -0.009212777295416912 0.2066909245235515 144 238 144 0.5
0.21567653401317527 -0.009212120445288786 0.20668562797048629 144 238 144 0.5
0.21564707638526148 -0.009211521665518788 0.2066802288973985 144 238 144 0.5
0.2156178542149118 -0.00921097949902154 0.20667472685994642 144 238 144 0.5
0.2155888509922163 -0.00921049248871167 0.20666912141378826 144 238 144 0.5
0.21556005020726474 -0.009210059177503796 0.20666341211458242 144 238 144 0.5
0.21553143535014713 -0.009209678108312545 0.20665759851798707 144 238 144 0.5
0.2155029899109534 -0.00920934782405254 0.20665168017966049 144 238 144 0.5
0.21547469737977337 -0.0092090668676384 0.20664565665526094 144 238 144 0.5
0.21544654124669704 -0.00920883378198475 0.2066395275004467 144 238 144 0.5
0.21541850500181445 -0.009208647110006216 0.20663329227087607 144 238 144 0.5
0.2153905721352153 -0.009208505394617419 0.20662695052220728 144 238 144 0.5
0.21536272613698965 -0.009208407178732983 0.2066205018100986 144 238 144 0.5
0.21533495049722745 -0.009208351005267533 0.20661394569020838 144 238 144 0.5
0.2153072287060186 -0.009208335417135687 0.2066072817181948 144 238 144 0.5
0.21527954425345294 -0.00920835895725207 0.20660050944971614 144 238 144 0.5
0.21525188062962045 -0.009208420168531309 0.2065936284404307 144 238 144 0.5
0.21522422132461116 -0.009208517593888021 0.2065866382459967 144 238 144 0.5
0.21519654982851485 -0.009208649776236838 0.20657953842207255 144 238 144 0.5
0.21516884963142147 -0.009208815258492375 0.20657232852431628 144 238 144 0.5
0.21514110422342103 -0.009209012583569256 0.20656500810838635 144 238 144 0.5
0.2151132970946034 -0.00920924029438211 0.20655757672994102 144 238 144 0.5
0.21508541181032118 -0.009209496933715557 0.206550033984318 144 238 144 0.5
0.2150574355712762 -0.009209781038075161 0.20654238138346406 144 238 144 0.5
0.2150293607577694 -0.009210091135020141 0.20653462317008559 144 238 144 0.5
0.21500118014640035 -0.009210425751425222 0.2065267637958233 144 238 144 0.5
0.21497288651376878 -0.009210783414165133 0.2065188077123181 144 238 144 0.5
0.21494447263647412 -0.009211162650114589 0.20651075937121066 144 238 144 0.5
0.2149159312911159 -0.009211561986148323 0.20650262322414176 144 238 144 0.5
0.21488725525429372 -0.009211979949141053 0.20649440372275218 144 238 144 0.5
0.21485843730260717 -0.009212415065967506 0.20648610531868264 144 238 144 0.5
0.2148294702126558 -0.009212865863502407 0.206477732463574 144 238 144 0.5
0.2148003467610391 -0.00921333086862048 0.20646928960906696 144 238 144 0.5
0.21477105972435684 -0.00921380860819645 0.2064607812068024 144 238 144 0.5
0.21474160187920835 -0.00921429760910504 0.20645221170842093 144 238 144 0.5
0.21471196600219317 -0.009214796398220974 0.20644358556556333 144 238 144 0.5
0.21468214486991113 -0.009215303502418977 0.2064349072298705 144 238 144 0.5
0.21465213125896151 -0.009215817448573775 0.20642618115298308 144 238 144 0.5
0.21462191794594399 -0.00921633676356009 0.20641741178654194 144 238 144 0.5
0.21459149770745822 -0.00921685997425265 0.20640860358218782 144 238 144 0.5
0.2145608633201036 -0.009217385607526175 0.20639976099156146 144 238 144 0.5
0.21453000756047977 -0.009217912190255391 0.20639088846630357 144 238 144 0.5
0.21449892320518626 -0.009218438249315022 0.20638199045805503 144 238 144 0.5
0.21446760303082274 -0.009218962311579794 0.20637307141845662 144 238 144 0.5
0.21443603981398862 -0.009219482903924431 0.206364135799149 144 238 144 0.5
0.2144042263312835 -0.009219998553223656 0.20635518805177303 144 238 144 0.5
0.214372155359307 -0.009220507786352193 0.2063462326279694 144 238 144 0.5
0.21433981967465868 -0.00922100913018477 0.20633727397937898 144 238 144 0.5
0.214307212053938 -0.009221501111596106 0.20632831655764247 144 238 144 0.5
0.2142743252737447 -0.009221982257460928 0.20631936481440064 144 238 144 0.5
0.21424115211067818 -0.009222451094653961 0.20631042320129425 144 238 144 0.5
0.21420768534133797 -0.00922290615004993 0.2063014961699641 144 238 144 0.5
0.21417391774232386 -0.009223345950523558 0.20629258817205096 144 238 144 0.5
0.21413984209023518 -0.00922376902294957 0.20628370365919557 144 238 144 0.5
0.21410545116167154 -0.009224173894202688 0.2062748470830387 144 238 144 0.5
0.2140707377332326 -0.00922455909115764 0.20626602289522117 144 238 144 0.5
0.2140356945815179 -0.009224923140689149 0.20625723554738368 144 238 144 0.5
0.2140003144831269 -0.009225264569671938 0.20624848949116706 144 238 144 0.5
0.21396459021465922 -0.009225581904980735 0.20623978917821204 144 238 144 0.5
0.2139285145527145 -0.00922587367349026 0.20623113906015939 144 238 144 0.5
0.21389208027389214 -0.009226138402075238 0.2062225435886499 144 238 144 0.5
0.2138552801547918 -0.009226374617610398 0.20621400721532432 144 238 144 0.5
0.21381810697201312 -0.009226580846970459 0.20620553439182343 144 238 144 0.5
0.21378055350215544 -0.009226755617030147 0.20619712956978797 144 238 144 0.5
0.21374261252181853 -0.009226897454664188 0.20618879720085875 144 238 144 0.5
0.2137042768076019 -0.009227004886747301 0.2061805417366765 144 238 144 0.5
0.213665539136105 -0.009227076440154221 0.20617236762888205 144 238 144 0.5
0.2136263922839275 -0.009227110641759661 0.20616427932911607 144 238 144 0.5
0.213586829027669 -0.009227106018438354 0.20615628128901947 144 238 144 0.5
0.21354684214392894 -0.009227061097065017 0.20614837796023291 144 238 144 0.5
0.2135064244093069 -0.009226974404514381 0.20614057379439715 144 238 144 0.5
0.2134655686004025 -0.009226844467661165 0.20613287324315296 144 238 144 0.5
0.21342426749381538 -0.009226669813380097 0.20612528075814124 144 238 144 0.5
0.2133825138661449 -0.009226448968545901 0.20611780079100261 144 238 144 0.5
0.21334030049399072 -0.009226180460033297 0.20611043779337787 144 238 144 0.5
0.21329762015395254 -0.009225862814717016 0.20610319621690787 144 238 144 0.5
0.21325446562262965 -0.00922549455947178 0.20609608051323328 144 238 144 0.5
0.21321082967662172 -0.009225074221172308 0.20608909513399487 144 238 144 0.5
0.21316670509252852 -0.009224600326693335 0.2060822445308335 144 238 144 0.5
0.21312208464694923 -0.009224071402909574 0.20607553315538985 144 238 144 0.5
0.21307696111648367 -0.009223485976695757 0.20606896545930475 144 238 144 0.5
0.21303132727773147 -0.009222842574926608 0.20606254589421896 144 238 144 0.5
0.2129851759072919 -0.009222139724476844 0.20605627891177314 144 238 144 0.5
0.21293849978176474 -0.009221375952221202 0.20605016896360823 144 238 144 0.5
0.21289129167774948 -0.009220549785034393 0.2060442205013649 144 238 144 0.5
0.2128435443718458 -0.009219659749791153 0.20603843797668392 144 238 144 0.5
0.21279525064065305 -0.009218704373366197 0.20603282584120608 144 238 144 0.5
0.2127464032607709 -0.009217682182634253 0.20602738854657215 144 238 144 0.5
0.21269699500879907 -0.009216591704470048 0.20602213054442292 144 238 144 0.5
0.21264701866133676 -0.009215431465748304 0.20601705628639908 144 238 144 0.5
0.2125964669949838 -0.009214199993343743 0.20601217022414148 144 238 144 0.5
0.21254533278633977 -0.009212895814131096 0.20600747680929085 144 238 144 0.5
0.21249360881200408 -0.009211517454985082 0.206002980493488 144 238 144 0.5
0.2124412878485763 -0.009210063442780423 0.20599868572837365 144 238 144 0.5
0.2123883626726562 -0.00920853230439185 0.20599459696558856 144 238 144 0.5
0.21233482606084308 -0.009206922566694083 0.20599071865677354 144 238 144 0.5
0.21228067078973664 -0.009205232756561849 0.20598705525356933 144 238 144 0.5
0.21222588963593647 -0.009203461400869873 0.2059836112076167 144 238 144 0.5
0.21217047537604197 -0.009201607026492873 0.20598039097055645 144 238 144 0.5
0.21211442078665285 -0.009199668160305577 0.20597739899402934 144 238 144 0.5
0.21205771864436854 -0.009197643329182712 0.20597463972967614 144 238 144 0.5
0.2120003617257889 -0.009195531059999006 0.20597211762913756 144 238 144 0.5
0.2119423428075131 -0.009193329879629172 0.20596983714405445 144 238 144 0.5
0.21188365466614087 -0.009191038314947936 0.20596780272606754 144 238 144 0.5
0.21182429007827203 -0.00918865489283004 0.20596601882681762 144 238 144 0.5
0.21176424182050563 -0.009186178140150185 0.20596448989794539 144 238 144 0.5
0.21170350266944155 -0.009183606583783106 0.2059632203910917 144 238 144 0.5
0.2116420654016794 -0.009180938750603534 0.20596221475789728 144 238 144 0.5
0.21157992279381857 -0.009178173167486179 0.20596147745000293 144 238 144 0.5
0.2115170676224586 -0.009175308361305768 0.20596101291904934 144 238 144 0.5
0.21145349266419936 -0.009172342858937043 0.2059608256166774 144 238 144 0.5
0.21138919069564008 -0.00916927518725471 0.20596091999452787 144 238 144 0.5
0.21132415449338032 -0.009166103873133493 0.20596130050424133 144 238 144 0.5
0.21125837683401977 -0.00916282744344812 0.20596197159745872 144 238 144 0.5
0.21119185049415817 -0.00915944442507333 0.2059629377258208 144 238 144 0.5
0.21112456825039472 -0.009155953344883826 0.20596420334096832 144 238 144 0.5
0.21105652287932916 -0.009152352729754341 0.20596577289454202 144 238 144 0.5
0.21098770715756124 -0.009148641106559609 0.20596765083818266 144 238 144 0.5
0.2109181138616901 -0.009144817002174335 0.2059698416235311 144 238 144 0.5
0.2108477357683155 -0.009140878943473254 0.20597234970222797 144 238 144 0.5
0.21077656565403724 -0.009136825457331098 0.20597517952591415 144 238 144 0.5
0.21070459629545452 -0.009132655070622574 0.2059783355462304 144 238 144 0.5
0.210631820469167 -0.009128366310222416 0.20598182221481742 144 238 144 0.5
0.21055823461952253 -0.009123958186958069 0.2059856427209709 144 238 144 0.5
0.21048385694210836 -0.009119432581693643 0.20598979276776583 144 238 144 0.5
0.21040871362025176 -0.009114792429261056 0.20599426530910134 144 238 144 0.5
0.21033283084951715 -0.009110040666106859 0.20599905329466497 144 238 144 0.5
0.21025623482546824 -0.009105180228677569 0.20600414967414443 144 238 144 0.5
0.2101789517436692 -0.009100214053419738 0.2060095473972271 144 238 144 0.5
0.21010100779968427 -0.009095145076779911 0.2060152394136006 144 238 144 0.5
0.21002242918907776 -0.009089976235204644 0.20602121867295248 144 238 144 0.5
