ply
format ascii 1.0
element vertex 1650
property float x
property float y
property float z
end_header
-0.065442 0.010844 0.285818
-0.179707 0.029262 0.415885
0.075139 -0.185514 0.633876
-0.067440 0.030119 0.357115
0.006327 -0.006506 0.183325
-0.100442 -0.195792 0.716401
0.247242 -0.142936 0.618645
-0.057233 -0.003280 0.526413
-0.061619 0.008056 0.317184
0.011302 0.004601 0.239261
0.006376 -0.006499 0.183518
-0.063092 0.008448 0.321601
0.120978 -0.008999 0.385017
0.019411 0.019974 0.244059
0.158037 -0.153550 0.563091
-0.042446 0.014905 0.268811
0.018675 0.044226 0.340933
-0.050047 -0.249028 0.938315
-0.050238 0.023997 0.301629
0.071088 -0.113131 0.670103
-0.140072 0.022975 0.461070
-0.217563 -0.134293 0.622079
-0.241790 -0.216691 1.079732
-0.099933 0.043894 0.355793
-0.055977 0.024052 0.327948
-0.071600 -0.102448 0.451690
0.067008 0.075779 0.513029
0.018813 0.022889 0.300050
-0.122859 0.027063 0.408009
0.000052 -0.065401 0.538347
0.014518 -0.028574 0.244040
0.070540 0.107774 0.549881
0.021710 0.022089 0.282829
-0.070153 0.006472 0.439765
-0.069838 0.027977 0.321264
0.207152 -0.117773 0.557314
0.168955 -0.004191 0.552187
0.113193 -0.161419 1.107360
0.051162 0.079166 0.304038
0.196919 0.063809 0.483248
0.140394 -0.153033 0.918726
-0.072072 0.012557 0.240896
0.208970 -0.011635 0.555182
0.142317 -0.185166 0.544100
0.303698 -0.114952 0.600529
0.021045 0.028923 0.135964
0.175111 -0.153890 0.740783
-0.058904 0.034140 0.140840
0.008976 0.031240 0.133884
-0.002811 0.029478 0.141864
-0.081093 0.022258 0.415739
-0.008681 -0.390624 1.296078
0.257995 -0.166476 0.619922
-0.088768 0.006799 0.239040
0.132885 -0.267052 0.735279
0.080260 0.019737 0.550528
0.008807 0.031253 0.133696
0.254491 -0.179984 0.644127
-0.008564 0.032405 0.130383
0.010492 0.030467 0.129056
-0.088564 0.005612 0.240097
-0.053009 0.029617 0.128676
-0.101609 0.029308 0.214456
0.348195 -0.215299 0.730475
-0.071382 0.025069 0.241548
0.237140 -0.146640 0.614029
-0.127504 -0.078607 0.346771
-0.064945 0.030323 0.223486
-0.066320 0.006698 0.372086
0.282899 -0.176733 0.605617
-0.055154 -0.029351 0.150076
0.040529 0.086968 0.301701
0.077819 -0.216269 0.626304
-0.002551 0.031264 0.147245
-0.090427 0.006654 0.243962
-0.071796 0.016068 0.219264
-0.085810 0.020756 0.236174
-0.181310 0.084090 0.674570
0.071543 0.020439 0.262227
-0.024414 0.034014 0.144154
-0.067850 0.032625 0.190902
-0.071456 0.012354 0.240744
-0.084912 0.034952 0.269538
-0.064534 0.023766 0.451441
-0.072958 0.003568 0.241490
0.238666 0.003414 0.475900
-0.085234 0.020921 0.235338
-0.074298 0.005070 0.244477
-0.002559 0.031157 0.146693
-0.107589 -0.008607 0.341104
0.019659 0.033285 0.174852
-0.069760 -0.048100 0.223726
0.024150 0.029413 0.161882
-0.129961 0.030315 0.270035
0.050519 0.087892 0.511442
-0.200132 -0.367692 1.279647
0.340388 -0.162501 0.659982
0.264456 -0.005337 0.504525
0.181589 -0.142911 0.628139
0.222179 0.011675 0.434354
-0.073425 0.017028 0.223698
-0.072558 0.026026 0.243633
-0.076715 -0.003035 0.224308
-0.080049 0.022382 0.415279
0.260735 -0.178520 0.624513
-0.052539 0.030600 0.196605
0.045064 0.029081 0.134698
-0.007039 0.036717 0.166048
0.149655 -0.151914 0.637026
0.265150 -0.205261 0.646703
0.191931 -0.265041 0.716880
0.178114 -0.212537 0.687995
0.214378 -0.160884 0.577735
0.271228 -0.177568 0.620216
-0.104647 0.046747 0.461103
0.005768 0.024547 0.200307
-0.233973 0.032102 0.436336
0.332791 -0.211620 0.653001
0.218371 0.002755 0.442687
-0.213119 -0.187379 1.086031
0.411907 0.132971 0.976669
-0.291807 -0.360305 1.349753
0.174898 -0.185441 0.693880
-0.061775 0.024588 0.318687
0.148352 -0.230206 0.745056
0.221657 -0.152648 0.590285
0.282064 -0.173490 0.660712
0.241873 -0.182606 0.616707
0.128710 -0.399369 1.349016
-0.079595 0.033021 0.260168
0.296587 -0.176049 0.617017
0.197255 -0.276965 0.701409
-0.057347 0.032922 0.137927
0.008808 0.025798 0.183152
-0.123691 -0.184355 0.623753
-0.064594 0.027434 0.235542
0.208688 -0.161123 0.563157
-0.108926 0.022432 0.400061
0.262339 -0.202915 0.638937
0.228243 -0.198128 0.607313
0.230638 -0.190435 0.616328
0.271980 -0.111832 0.587016
0.072236 0.020371 0.261460
0.183503 -0.186402 0.770530
0.171391 -0.146609 0.761899
0.104466 -0.216594 0.710116
0.215426 -0.101115 0.575331
0.233655 -0.153712 0.586241
0.003132 0.027347 0.162930
0.098326 -0.242403 0.769789
0.297648 -0.111950 0.591377
0.074783 -0.207865 0.608842
0.064185 0.117019 0.462374
0.123978 -0.195125 0.838199
-0.086669 -0.118779 0.453395
0.176920 -0.091631 0.686090
-0.007345 0.033526 0.155694
-0.090599 0.010744 0.245140
0.020895 0.028598 0.161273
0.037442 0.026680 0.179810
-0.024944 0.033243 0.141463
0.062559 0.018570 0.628476
-0.060820 0.032499 0.185075
-0.064070 0.002662 0.417933
-0.061283 0.035949 0.146298
0.220400 -0.153670 0.588485
0.020755 0.028532 0.160720
0.127539 -0.317249 1.079746
0.120467 -0.359352 1.105578
0.182458 -0.230089 0.689257
-0.376608 0.030161 0.698724
0.275940 -0.179779 0.645349
0.068624 0.021123 0.456029
0.136394 -0.215973 0.789617
0.184264 -0.215515 0.710139
0.135218 -0.269249 0.772182
0.230711 -0.122954 0.600627
-0.082105 0.002346 0.227621
-0.060874 0.001258 0.215113
0.224076 -0.184267 0.598795
0.086748 -0.136365 0.764954
0.225240 -0.184264 0.605014
0.022621 0.030429 0.166915
0.164076 -0.257585 0.819977
-0.003015 0.023963 0.254253
0.034859 0.028173 0.151819
0.011856 0.067700 0.289533
-0.066900 0.022694 0.230132
0.084487 0.178146 0.714906
0.225835 -0.206014 0.605688
0.267459 -0.132533 0.605854
-0.066424 -0.010380 0.419757
-0.075287 -0.103608 0.383129
-0.166061 0.032457 0.403464
-0.069818 0.008406 0.410155
0.242810 -0.182316 0.618315
0.236537 -0.136253 0.592044
0.206125 -0.156465 0.558954
0.220363 -0.191275 0.591741
-0.339295 -0.161483 0.684732
0.216937 -0.146762 0.580479
-0.224590 0.030938 0.420855
-0.192627 0.031138 0.435181
0.253439 -0.186072 0.635925
0.337873 -0.185075 0.682689
0.170211 -0.144504 0.821568
0.191612 -0.159450 0.799018
-0.084810 -0.059087 0.261288
0.165454 -0.195428 0.639116
0.254628 -0.144420 0.626357
0.273053 -0.118505 0.612119
0.010593 0.050349 0.370556
-0.018677 -0.386110 1.441714
0.228550 -0.164809 0.606140
0.299437 -0.176919 0.619451
0.258964 -0.156184 0.519448
-0.121510 -0.125958 0.603944
-0.377148 0.022203 0.675115
-0.005956 0.019820 0.412578
-0.351580 -0.247701 1.160633
0.090964 -0.211850 0.735415
0.134429 -0.163008 0.795419
0.265229 -0.182705 0.633265
0.246974 -0.114735 0.610239
0.000593 0.033463 0.164836
0.215586 -0.147647 0.579397
0.140338 -0.249539 0.712978
0.209197 0.067463 0.505792
-0.057177 -0.402266 1.124189
-0.028826 0.030098 0.182183
0.037391 0.026627 0.180006
0.021365 0.029241 0.136485
-0.221992 -0.386161 1.362814
0.003460 0.029298 0.168054
0.065371 0.014609 0.357741
0.241821 -0.141555 0.616779
-0.084090 -0.058311 0.259153
-0.064331 0.030605 0.201923
0.049848 0.023522 0.253324
0.231649 -0.002784 0.476735
0.181884 -0.244118 0.774091
-0.015493 0.024043 0.265577
0.048128 0.031105 0.140816
-0.048180 0.042046 0.301971
0.270297 -0.139331 0.619515
0.043236 0.024681 0.205388
0.004352 0.022097 0.247393
0.265332 -0.172579 0.640336
-0.000417 0.029312 0.152978
-0.041853 0.026861 0.267748
0.224882 -0.110298 0.571252
0.219183 -0.220550 0.777286
0.180165 -0.151322 0.758877
0.086314 -0.152998 0.741960
0.155952 -0.210337 0.783279
0.168087 -0.201713 0.819979
0.181483 -0.162658 0.768101
0.274204 -0.200621 0.648307
0.153416 -0.209010 0.774692
0.354657 -0.181484 0.626141
0.173248 -0.200067 0.592204
0.304310 -0.193513 0.654961
-0.368158 0.012605 0.691031
-0.073903 0.005760 0.245274
-0.084538 0.022980 0.423624
0.326551 -0.208992 0.648677
-0.210944 -0.010879 0.622666
-0.240443 -0.207906 1.180364
0.221211 -0.005444 0.450766
0.219284 -0.150408 0.586755
0.251484 0.083770 0.570879
-0.020090 0.040538 0.396265
-0.147685 -0.326377 1.061979
-0.014751 -0.380378 1.265318
-0.147024 -0.030219 0.607228
0.153045 -0.075092 0.689563
-0.214327 -0.395800 1.369758
0.106793 -0.260520 0.827767
0.275062 -0.142795 0.629449
-0.228404 -0.136533 0.654451
-0.062437 0.024494 0.281485
0.034812 0.010288 0.268145
0.328955 -0.203740 0.669912
0.271327 -0.146676 0.637030
0.301535 -0.189638 0.635994
-0.093529 -0.006929 0.302608
0.133552 -0.238347 0.760900
0.156857 -0.220124 0.782335
0.179428 -0.187234 0.762856
-0.078861 -0.093293 0.743345
0.177090 -0.179048 0.695536
-0.232944 -0.012930 0.678220
-0.224263 -0.131136 0.644354
-0.060538 0.022747 0.316612
0.186216 -0.207362 0.729575
0.115284 -0.218282 0.720699
0.166496 -0.168313 0.810479
0.047590 0.011219 0.385802
0.178302 -0.176351 0.756877
0.171670 -0.154593 0.664655
0.038846 0.023248 0.507975
0.336911 -0.200097 0.654992
0.160598 -0.184645 0.575832
0.176468 -0.170822 0.624775
0.023897 0.014023 0.448527
0.116655 -0.068762 0.726070
0.304646 -0.124567 0.605730
0.191717 -0.250968 0.710359
0.207533 -0.212670 0.750333
-0.057614 0.022589 0.312221
0.133128 -0.240200 0.750668
0.022929 0.018881 0.343531
0.132413 -0.241479 0.771547
0.335585 -0.178899 0.696479
-0.109587 -0.246454 0.935759
0.086113 -0.256309 0.691113
0.258373 -0.176591 0.621106
-0.029947 0.032852 0.191288
0.324170 -0.176310 0.655012
0.304013 -0.179916 0.628577
0.255543 -0.137698 0.603928
0.304007 -0.180256 0.629606
-0.058373 0.033715 0.374102
0.081260 -0.225489 0.659519
0.280712 -0.181934 0.591130
0.210355 -0.260123 0.781736
0.068265 0.015206 0.366058
0.268118 -0.175012 0.646246
0.183008 -0.206044 0.646676
-0.233871 -0.268151 1.370467
0.149956 -0.027943 0.667954
0.052139 0.022231 0.248102
-0.152373 -0.018720 0.632141
-0.052819 0.030881 0.198071
-0.064067 0.029951 0.183989
-0.023161 0.032713 0.140309
-0.104757 0.021040 0.378579
-0.122065 -0.076326 0.310897
0.043104 0.024766 0.205277
0.252017 -0.003889 0.487068
-0.001494 0.024047 0.253656
0.325226 -0.176477 0.639552
0.179581 -0.210873 0.866031
0.189291 -0.223732 0.800700
0.190615 -0.217971 0.721271
0.161917 -0.197323 0.800880
0.142960 -0.221718 0.725401
-0.082934 -0.114476 0.430873
-0.146420 -0.075962 0.604417
0.174273 -0.240134 0.652408
0.317474 -0.188460 0.614277
0.008164 0.030110 0.130422
0.211071 0.001533 0.510249
0.218098 0.000599 0.564355
0.190563 0.000136 0.562859
0.211423 0.001061 0.519152
0.183106 -0.000545 0.580209
-0.057667 0.020485 0.407950
-0.040205 0.028424 0.246024
0.436242 -0.261421 0.902530
0.256166 -0.158949 0.604017
0.185848 -0.215783 0.777488
0.178530 -0.270376 0.762489
0.130727 -0.203652 0.823685
0.320256 -0.206388 0.637137
0.173960 -0.167384 0.602006
0.260299 -0.169430 0.633180
0.200137 -0.249229 0.756618
0.176255 -0.029851 0.680735
0.319382 -0.142717 0.637796
-0.072330 -0.001389 0.609198
0.348201 -0.188305 0.682441
0.081006 -0.208790 0.670671
0.297415 -0.183860 0.631977
0.262339 -0.201039 0.634435
-0.189675 0.030578 0.443037
0.145982 0.001497 0.555100
0.167908 0.004094 0.562251
0.203622 -0.000572 0.504669
0.151223 0.002285 0.557416
-0.172324 -0.061392 0.618225
-0.310261 -0.005131 0.655551
0.022913 0.026300 0.238826
0.023759 0.030430 0.276716
-0.094755 -0.201143 0.791738
0.016512 0.030516 0.167189
-0.014297 0.023360 0.260573
0.224725 -0.000427 0.565202
0.495861 -0.159366 0.531339
0.372865 -0.109457 0.575905
0.213609 0.001469 0.527014
0.063188 0.014661 0.349678
-0.082778 0.016540 0.286511
-0.023129 0.025589 0.254191
0.410227 -0.020137 0.561275
0.503392 -0.108651 0.532461
0.451739 -0.019861 0.545532
0.050684 0.059524 0.462548
0.163155 -0.231736 0.715490
-0.036260 -0.105063 0.817646
0.176510 -0.025715 0.643739
0.085817 0.025891 0.273777
0.047155 0.022743 0.248013
-0.215846 -0.011486 0.665535
0.141341 -0.219882 0.784058
0.091398 -0.253219 0.838333
-0.059249 -0.380746 1.080587
-0.091993 -0.007451 0.298198
0.195400 -0.248265 0.715847
0.204212 -0.000694 0.512402
0.146810 0.004318 0.562003
0.168068 -0.050721 0.672235
0.134169 -0.238574 0.685204
0.342973 -0.197405 0.639248
0.023298 0.028336 0.159514
-0.083614 0.022374 0.205941
-0.144926 -0.075591 0.599487
0.075204 0.010305 0.414234
-0.073979 -0.035169 0.425590
0.075797 0.016585 0.376866
0.130929 -0.127076 0.757175
-0.065232 0.030417 0.225234
0.212908 0.070329 0.503252
-0.177739 -0.063324 0.624458
0.034687 0.028146 0.151739
0.179158 -0.186426 0.656879
0.150584 -0.232470 0.665092
0.120334 -0.409187 1.291404
0.071327 -0.154961 0.815579
-0.023433 0.026153 0.256469
0.142613 -0.193023 0.806456
0.024692 0.108676 0.403555
0.165203 -0.220931 0.718436
0.308050 -0.194890 0.637575
-0.005417 0.027706 0.190075
0.106382 -0.219944 0.722264
0.008494 -0.032142 0.219549
0.117484 0.117345 0.744065
0.491155 0.563530 2.062039
0.250763 -0.178720 0.633673
-0.040685 0.025708 0.263875
0.025571 0.027489 0.146504
0.085858 -0.125314 0.889229
0.008037 0.025464 0.252757
-0.065643 0.026420 0.250975
0.179855 -0.182219 0.756285
0.108672 -0.219094 0.799635
0.147266 -0.198514 0.828213
0.143598 0.047738 0.358600
0.193959 -0.172715 0.724630
0.300391 -0.171434 0.676699
0.214982 -0.169046 0.714126
-0.486195 -0.447564 2.131342
0.485767 -0.064490 0.545399
0.217444 -0.002216 0.559855
0.154259 -0.199076 0.850601
-0.112453 -0.077691 0.329317
-0.047725 0.037775 0.298538
0.155866 -0.147758 0.613058
0.336643 -0.186357 0.624945
0.118062 -0.201779 0.840839
0.146198 -0.076074 0.751581
0.314787 -0.099259 0.569601
0.322460 -0.115646 0.580604
0.495238 -0.079316 0.537555
0.198230 -0.000454 0.562054
-0.114805 -0.250693 0.960364
0.172601 -0.199780 0.743086
0.140021 -0.208084 0.779988
0.091640 -0.166994 0.786358
0.287587 -0.192646 0.639287
0.134061 -0.382421 1.382797
0.155351 -0.078761 0.719178
0.000199 0.018958 0.317238
-0.218577 -0.009057 0.641949
-0.133853 -0.179756 0.662345
0.088911 -0.069439 0.717407
-0.115870 0.055511 0.367676
-0.684804 -0.411145 3.051901
0.085418 -0.219962 0.697236
0.162219 -0.188904 0.880068
-0.111231 0.022345 0.402806
-0.075619 0.017746 0.225932
0.079903 -0.118249 0.860677
-0.088779 -0.069359 0.461516
0.351116 -0.010200 0.549471
0.464757 -0.017266 0.561312
-0.065193 0.004510 0.420662
0.175749 -0.165860 0.601018
0.174409 -0.181243 0.687214
0.171574 -0.200462 0.661016
-0.066519 0.004353 0.378962
0.334896 -0.191812 0.628537
0.219339 -0.134048 0.584790
0.010384 0.025991 0.237578
0.218452 -0.189103 0.587669
0.283279 -0.205981 0.667296
0.063823 0.018695 0.224131
0.017102 0.031003 0.168583
0.167259 -0.195086 0.812430
0.166641 -0.125850 0.707986
-0.113199 0.002659 0.588624
0.081464 0.004737 0.515771
0.164334 -0.089698 0.676923
0.110002 -0.003786 0.655188
-0.135684 -0.046003 0.600730
0.511276 -0.144664 0.515140
0.180195 0.000365 0.575611
0.336181 -0.109551 0.570127
0.208867 -0.162833 0.697883
0.109787 -0.019811 0.638165
-0.164811 -0.194383 0.659758
0.087206 -0.163702 0.742211
0.046088 0.010099 0.517858
-0.151851 -0.163288 0.679871
0.163630 -0.100723 0.684900
0.192155 -0.151513 0.746401
0.174256 -0.177875 0.842336
0.267754 -0.004392 0.549677
0.269322 -0.002352 0.553107
0.477942 -0.134525 0.512035
0.512027 -0.124629 0.497194
0.150736 -0.107344 0.707474
-0.031539 -0.384888 1.098725
-0.035894 -0.394947 1.125961
0.088061 -0.135772 0.771373
0.214473 -0.123308 0.571614
0.175782 -0.033386 0.677439
0.088726 -0.163569 0.733247
0.175022 -0.163991 0.713127
0.340195 -0.196796 0.637045
-0.059655 0.031599 0.182369
0.027901 -0.384289 1.035850
0.149140 -0.152377 0.774245
-0.005014 0.031010 0.203862
-0.056618 0.021855 0.213499
0.159487 -0.219569 0.794574
0.199336 -0.001092 0.560807
-0.167386 -0.197927 0.667179
-0.263309 -0.220584 1.109779
-0.008016 -0.242774 1.162742
-0.014681 0.025925 0.230026
-0.000597 0.024654 0.276325
-0.044688 0.027983 0.245122
0.366061 -0.150741 0.591342
-0.051896 0.030763 0.197159
0.359422 -0.010804 0.577010
0.360212 -0.010517 0.577456
-0.060285 0.024984 0.306032
0.090035 -0.050027 0.689694
0.177296 -0.168537 0.633984
0.101162 0.001598 0.650029
0.114723 -0.379153 1.238924
0.122116 -0.195269 0.808902
0.153351 -0.071656 0.694951
0.536902 -0.085425 0.536637
0.110692 -0.207878 0.685779
-0.069298 -0.015921 0.585416
0.121864 -0.220988 0.792582
0.054926 0.019766 0.413804
0.172266 -0.215092 0.925112
-0.016916 -0.415258 1.424487
0.111779 -0.066698 0.737479
0.039385 -0.386222 1.157232
0.168801 -0.197782 0.983986
0.078916 0.011010 0.424257
-0.059790 0.019782 0.435642
-0.068581 -0.033391 0.402063
-0.066491 0.023269 0.477392
-0.025162 0.016875 0.409180
0.176524 -0.219807 0.678909
0.126546 -0.340623 1.125951
0.005900 0.028247 0.214824
0.062310 0.063024 0.511156
-0.212750 -0.170717 0.839246
0.173883 -0.150738 0.840957
0.132811 -0.027062 0.667929
0.236515 -0.168149 0.599310
0.179579 -0.092016 0.687354
0.168954 -0.048891 0.682121
0.128120 -0.224110 0.733921
0.231131 -0.188469 0.619051
0.177678 -0.187478 0.935335
0.127531 0.192426 1.046318
0.177014 -0.192612 0.709640
0.092396 0.108303 0.760055
-0.028009 0.030004 0.182142
-0.062025 0.024464 0.314592
-1.368622 -0.883315 3.213537
0.369868 -0.151396 0.600896
0.979436 -0.122753 0.507828
0.201888 -0.000750 0.502278
0.108915 -0.231003 0.893355
0.180876 -0.148870 0.870258
-0.188930 -0.009387 0.577021
0.080825 -0.178927 0.664579
0.138670 -0.310797 1.450548
-0.032277 -0.021936 0.714302
0.069452 -0.123214 0.624798
-0.052798 0.030586 0.196381
0.304572 0.097808 0.727715
0.155378 -0.248579 0.773734
-0.251722 -0.291628 1.518882
0.126817 -0.219952 0.781384
0.208957 -0.001903 0.559656
0.051853 0.022370 0.248724
-0.125756 -0.286266 0.985617
0.151381 -0.202980 0.834966
0.163003 -0.126132 0.700736
0.478686 -0.562541 1.994003
0.176633 -0.102809 0.702516
0.171198 -0.105863 0.689642
0.172905 -0.111219 0.714413
0.179310 -0.107140 0.700116
0.182533 -0.116329 0.711536
0.173325 -0.099927 0.693495
0.147809 -0.008030 0.628272
0.176354 -0.111274 0.717486
0.110449 -0.020904 0.650103
0.128954 -0.179102 0.773642
-0.235892 0.025079 0.633992
-0.066460 -0.014337 0.589722
0.085859 -0.235179 0.687269
0.139046 -0.227424 0.709256
0.252845 0.081656 0.605603
0.494986 -0.149426 0.531550
0.185916 0.000696 0.563444
0.154172 -0.006404 0.539467
0.206637 0.000388 0.503539
0.212319 0.001241 0.524488
0.020744 0.022131 0.250179
0.084425 -0.027244 0.670354
0.268067 -0.190418 0.641421
0.268321 -0.115654 0.590553
0.011220 0.036421 0.292305
-0.138734 0.032806 0.426279
0.565042 -0.121059 0.499423
0.494166 -0.112889 0.481505
0.605077 -0.146560 0.541807
0.207148 -0.000251 0.563150
0.110435 -0.066512 0.730079
-0.307798 -0.171851 1.034360
-0.241008 -0.182099 0.958157
0.007893 -0.381739 1.253018
0.129143 -0.069621 0.750312
0.154143 -0.079245 0.702209
-0.131485 0.031064 0.416483
-0.105767 -0.099649 0.529927
0.128883 -0.241727 0.746494
-0.166980 0.018749 0.602434
0.122769 -0.224489 0.731570
0.178462 -0.177089 0.763021
0.245887 -0.141104 0.604645
0.189723 -0.143519 0.792930
-0.277180 -0.191374 0.925550
-0.044122 -0.228880 0.858717
0.168754 -0.119608 0.741129
0.177361 -0.038659 0.683784
0.176950 -0.027743 0.679765
0.112755 -0.004974 0.655528
0.094409 -0.047764 0.693100
0.156768 -0.077440 0.685664
0.157401 -0.148580 0.718480
0.184703 -0.138498 0.721389
0.176882 -0.136363 0.715610
0.165686 -0.005651 0.652859
0.166966 -0.138227 0.811482
0.208424 -0.000952 0.540005
0.207943 -0.001406 0.546971
0.471413 -0.111579 0.528226
0.182241 -0.097467 0.675772
0.175287 -0.136031 0.727410
-0.148974 0.024576 0.478108
-0.084035 -0.091445 0.514938
0.172769 -0.108288 0.703832
0.184513 -0.226010 0.720342
0.173204 -0.050350 0.682350
0.182891 -0.002027 0.611394
0.176657 -0.209704 1.028582
-0.327022 -0.262430 1.086501
-0.073120 -0.099611 0.416666
0.003316 0.019632 0.331118
-0.039680 0.027032 0.241257
-0.064997 0.025460 0.313705
0.048690 0.022282 0.245992
-0.000641 0.024060 0.274047
0.162843 -0.218984 0.805598
-0.210256 -0.344854 1.333053
0.030804 -0.420692 1.127595
0.220596 -0.320491 1.288731
0.043622 -0.004919 0.650794
0.150435 -0.032839 0.674124
0.158292 -0.074685 0.683338
0.003223 -0.108909 0.836328
0.004090 -0.123736 0.918592
0.017706 -0.009085 0.652887
0.156181 -0.198317 0.795596
0.134567 -0.208010 0.775468
-0.036511 -0.175388 0.765620
0.086307 -0.195768 0.711730
-0.638604 -0.554419 2.472691
0.128022 -0.161609 0.773170
0.229986 -0.428865 2.058715
0.154321 -0.149597 0.885716
0.103652 -0.003803 0.641392
0.168354 -0.070299 0.678749
-0.016015 0.026415 0.269763
0.246936 -0.185232 0.625962
-0.156088 -0.104065 0.648647
0.175988 -0.138567 0.611182
0.178486 -0.006764 0.644925
0.026602 0.019418 0.436373
0.018387 0.019465 0.261420
0.142741 -0.242925 1.221680
0.480590 -0.163350 0.542560
0.255039 -0.112562 0.584079
0.476346 -0.165181 0.535695
0.270223 -0.119514 0.593984
0.264979 -0.110265 0.579990
0.476646 -0.015688 0.552035
0.032537 -0.001551 0.348686
0.111079 -0.228584 1.246592
0.010249 0.012568 0.444007
0.173626 -0.138611 0.591916
-0.037745 -0.182900 0.785944
-0.076705 -0.054078 0.405406
0.230813 -0.107421 0.576077
0.117125 -0.164636 0.953438
0.149503 -0.067761 0.703145
-0.004815 0.018106 0.403802
-0.092991 0.019976 0.311475
-0.218785 -0.156978 0.619568
-0.002392 0.021262 0.264592
0.085296 -0.039190 0.684194
0.054282 0.050711 0.628341
-0.054556 0.018549 0.425864
0.002812 -0.124283 0.909775
0.551666 -0.144564 0.518670
0.322080 -0.113600 0.586314
0.484619 -0.067676 0.546089
-0.017197 -0.035829 0.744381
0.175904 -0.135312 0.677970
0.139355 -0.229720 0.799262
0.003538 0.020149 0.333446
-0.031337 0.021253 0.328071
0.007411 0.016944 0.391635
0.187817 -0.147066 0.624119
-0.080799 -0.081173 0.437366
-0.144836 -0.030877 0.602160
-0.056439 0.023725 0.324501
0.139516 0.098427 0.775816
0.020099 0.012689 0.328931
0.109042 -0.188444 0.772938
0.484057 -0.176169 0.542396
0.184241 -0.101884 0.693225
0.016797 0.040825 0.311514
-0.019291 -0.405817 1.501816
-0.105070 0.021975 0.406718
-0.069852 0.012316 0.261790
-0.071774 0.008462 0.413865
-0.059972 0.008717 0.596671
0.097153 -0.082159 0.755953
0.025882 0.014529 0.458746
0.014020 0.018764 0.353278
-0.166574 -0.065275 0.567762
-0.216705 -0.121429 0.642803
-0.034471 -0.034837 0.726612
-0.003761 0.017628 0.403542
0.184513 -0.181879 0.738659
-0.220904 -0.151374 0.625980
0.134395 -0.148610 0.891875
0.471448 -0.029240 0.546127
0.008287 0.024833 0.264211
-0.036698 0.025648 0.238572
-0.159931 -0.134975 1.115175
0.177432 0.003450 0.715336
0.183618 -0.090182 0.695543
0.168201 -0.121210 0.705174
0.159566 -0.087763 0.640431
0.176403 -0.113606 0.699973
0.174776 -0.041125 0.689919
0.165319 -0.049261 0.686718
-0.047220 0.016274 0.207704
-0.067095 0.027114 0.280486
0.313118 -0.144897 0.690861
-0.042589 0.027920 0.269261
0.095522 -0.087000 0.754952
0.001711 0.019948 0.312145
0.187132 -0.104410 0.680349
0.261940 -0.109739 0.575098
0.191852 -0.000985 0.560446
0.471821 -0.023698 0.563174
0.169794 -0.162471 0.615721
-0.030568 0.016936 0.416021
0.175549 -0.209120 0.854696
0.174368 -0.175364 0.751971
0.091465 -0.066263 0.736880
-0.237268 -0.218933 1.064049
0.016287 0.014455 0.409969
0.197982 0.000278 0.563419
0.513349 -0.088161 0.537750
0.484815 -0.085454 0.485817
0.012090 0.020464 0.264601
-0.055568 0.021369 0.244088
-0.012288 0.024830 0.281700
0.285217 -0.181969 0.617973
0.126587 -0.373312 1.324600
0.178071 -0.134455 0.679226
-0.118000 0.000923 0.634456
0.155962 -0.213615 0.876168
0.038903 -0.028401 0.643918
0.059008 0.000500 0.664418
0.504781 -0.122773 0.496863
0.489976 -0.167496 0.527787
0.489790 -0.119608 0.513967
-0.056443 0.019824 0.340241
0.493771 -0.124184 0.480570
0.487396 -0.164027 0.478848
0.473450 -0.114368 0.487983
0.495039 -0.167545 0.485557
0.178202 -0.092391 0.689436
0.030794 0.018006 0.420421
0.052505 0.009412 0.451645
-0.023569 0.016304 0.414616
-0.014395 0.016775 0.401337
-0.113379 0.019510 0.521605
-0.138640 -0.046426 0.607433
-0.040440 0.016023 0.418516
0.178940 -0.165465 0.719059
-0.071738 -0.064550 0.602882
0.201573 -0.000944 0.500512
0.202443 -0.003089 0.556379
0.182904 -0.005721 0.565277
0.208484 -0.000348 0.530740
-0.009814 -0.311071 1.210925
0.458455 -0.018228 0.562108
0.189209 0.000431 0.555589
0.209696 -0.000767 0.544052
0.014070 0.008724 0.484888
-0.148701 -0.035801 0.595104
0.174455 -0.079676 0.685732
-0.135618 -0.016480 0.608403
0.173178 -0.143205 0.838133
0.095227 -0.162218 0.780041
-0.054846 0.017476 0.497432
-0.090004 0.008460 0.580084
-0.111045 -0.078987 0.585545
-0.160318 0.013756 0.637691
-0.111192 0.003472 0.581629
-0.033491 0.016324 0.421806
0.262224 -0.196743 0.667600
0.312405 -0.120860 0.614737
0.001441 0.017483 0.401797
-0.964747 -0.305197 2.804405
-0.207308 -0.153537 0.619314
0.487861 -0.118640 0.563362
-0.149942 -0.018436 0.624840
-0.073506 0.009892 0.408568
0.485874 -0.119659 0.544354
0.491594 -0.015682 0.548757
0.083287 -0.178853 0.693282
-0.239823 -0.165908 1.176974
-1.192560 -0.403146 3.164233
-0.057907 0.017557 0.410820
-0.225043 -0.154867 0.620957
0.012532 0.023107 0.234172
0.215508 -0.002777 0.558219
-0.012373 -0.364402 2.030134
0.136752 -0.040222 0.664467
-0.253708 -0.235138 1.137122
-0.030429 0.016176 0.413692
0.041388 0.014733 0.542287
0.171734 -0.159202 0.756677
0.168959 -0.140351 0.723414
-0.089180 -0.106742 0.677582
0.180065 -0.060836 0.685437
0.179445 -0.190048 0.767299
0.119590 0.237461 1.101593
0.186861 -0.005424 0.663484
0.159013 -0.031538 0.667167
0.160784 -0.046646 0.683423
-0.199665 -0.010746 0.624333
0.139016 -0.208528 0.777480
0.023993 0.017326 0.350814
-0.048144 0.021783 0.348260
0.144119 -0.161854 0.768078
0.118860 -0.174406 0.864611
0.137938 -0.041424 0.666556
0.108750 -0.150730 0.948760
0.037992 0.015181 0.362661
-0.012245 -0.304027 1.590135
-0.195099 -0.012629 0.614137
-0.066130 -0.063707 0.577036
-0.062822 0.015192 0.414480
-0.062626 0.015287 0.413890
0.189124 -0.145981 0.640668
-0.057845 0.016744 0.415379
0.293947 -0.197179 0.651121
-0.010501 -0.256753 1.147568
-0.111771 -0.108738 0.626430
0.208038 0.000626 0.506940
0.186790 -0.001334 0.559328
0.180647 -0.114967 0.714210
0.279374 -0.102966 0.578513
0.207106 0.000083 0.511441
0.208579 0.000501 0.510614
0.153997 -0.086942 0.639118
0.146941 0.004581 0.562662
0.287732 0.464110 1.781251
-0.313934 -0.215956 1.055110
0.164224 -0.198819 0.806243
-0.086016 0.017474 0.295991
-0.082854 0.016431 0.291469
-0.077043 0.015187 0.280337
0.148422 -0.230203 0.834786
0.186093 -0.157577 0.810584
0.066966 0.014459 0.351175
0.012015 0.021131 0.291970
-0.001677 0.024348 0.253784
0.154224 0.241076 0.935417
-0.085912 -0.080994 0.664906
-0.236752 -0.319094 1.154655
0.207013 0.000320 0.505946
0.186131 0.003245 0.583449
0.208198 0.000545 0.510700
-0.217736 -0.156791 0.616289
-0.520999 -0.556862 2.766765
-0.359490 -0.311694 1.812085
0.224959 -0.119852 0.589000
-0.010534 0.023114 0.274811
0.013011 0.019469 0.315837
-0.041532 0.021390 0.464568
-0.235063 0.024272 0.610352
-0.029894 0.020592 0.343057
0.482932 -0.114549 0.538795
0.514922 -0.138730 0.567685
0.251858 -0.163739 0.617813
-0.051728 0.025202 0.305199
-0.170500 0.050136 0.528271
0.159871 -0.156483 0.741550
0.176349 -0.155508 0.727163
0.166207 -0.143729 0.743766
-0.068453 0.014021 0.738680
-0.047389 0.004849 0.657673
-0.010582 0.023176 0.275177
0.253202 -0.004442 0.549272
0.205041 -0.001533 0.531906
0.187462 -0.148910 0.625226
-0.268706 -0.245737 1.182041
0.202960 -0.387505 1.255647
0.187030 -0.140485 0.641956
0.124180 -0.170845 0.975504
0.730339 -0.133871 0.550290
0.093239 -0.128084 0.806676
0.503956 -0.110070 0.532240
-0.000525 0.023331 0.272193
-0.057377 0.021127 0.273323
-0.113704 0.025557 0.378772
-0.121475 -0.109959 0.900220
-0.033971 0.018897 0.431442
0.145393 -0.150186 0.769306
0.500164 -0.164744 0.531462
0.215229 0.003363 0.561467
0.495439 -0.147839 0.489762
0.161612 -0.279152 1.441148
-0.276141 -0.181594 0.896369
0.091871 -0.067129 0.736478
0.220174 -0.001067 0.553904
0.015686 0.006522 0.328364
-0.049538 0.014795 0.443608
-0.048638 0.014895 0.359346
0.142789 -0.227371 0.738098
0.184183 -0.189040 0.781508
-0.213560 -0.124901 0.615968
0.072117 0.014189 0.362957
-0.139174 -0.152932 0.843215
-0.103082 -0.102833 0.702564
-0.111083 -0.077860 0.615850
-0.064380 0.015586 0.418766
-0.062058 -0.007165 0.408699
-0.057934 0.018287 0.417086
0.057063 0.000869 0.413275
-0.107298 0.000641 0.613938
-0.103793 0.012714 0.572128
-0.101828 0.000971 0.601412
0.209377 -0.000206 0.530377
0.208072 -0.000155 0.523207
0.206511 -0.000300 0.516795
0.242164 -0.001515 0.554094
0.207401 0.000911 0.502641
0.211013 -0.002332 0.550848
0.194154 -0.001062 0.552513
0.475105 -0.017125 0.565157
0.478827 -0.121687 0.558726
0.482008 -0.066466 0.545917
0.174201 -0.001643 0.568949
0.171996 -0.005239 0.653709
0.339880 -0.120052 0.587932
0.372589 -0.124687 0.594972
0.448855 -0.177028 0.684003
0.034497 0.017610 0.344696
0.023288 0.020769 0.347670
-0.069162 -0.041403 0.419454
-0.068269 0.026977 0.351207
-0.211474 -0.110611 0.635535
0.074466 0.009507 0.410142
-0.064700 0.033382 0.402873
0.083968 -0.115674 0.727837
0.019168 0.013748 0.401187
-0.160745 0.015173 0.638231
0.254968 -0.197864 0.629749
-0.098790 0.019075 0.418648
-0.030173 -0.062156 0.781409
-0.164743 -0.059452 0.590733
0.209480 -0.010807 0.555866
0.045755 0.017515 0.321146
0.017043 0.019114 0.282089
-0.175149 -0.066682 0.584767
-0.149412 0.024556 0.478870
0.256354 -0.164633 0.614898
0.046051 0.022174 0.245954
-0.203369 0.018631 0.541985
-0.021608 0.022357 0.244518
-0.019312 -0.000756 0.174548
0.491806 -0.021450 0.551223
0.391530 -0.008338 0.556498
0.555574 -0.092124 0.489750
0.178940 -0.066189 0.689674
0.156038 -0.144343 0.716681
0.162304 -0.141374 0.733402
0.041473 -0.029215 0.673705
0.127850 -0.161886 0.771110
0.153198 -0.070122 0.692069
0.178408 -0.146350 0.720305
-0.246225 -0.182571 1.190052
-0.215030 -0.114055 0.644186
-0.046925 0.012469 0.508688
0.003610 0.018720 0.328549
0.033136 0.016450 0.341995
0.032930 0.016320 0.341308
0.001979 0.019881 0.311069
-0.065503 0.025473 0.335396
0.188396 -0.164591 0.897406
-0.067216 0.026767 0.309425
0.505674 -0.178860 0.545765
0.506949 -0.154396 0.532522
0.497173 -0.120576 0.482096
0.106621 -0.210714 0.700585
-0.314712 -0.323458 1.288174
-0.305718 -0.382564 1.332039
0.000458 0.019316 0.348109
0.504008 -0.014990 0.550478
0.157314 0.038248 0.595039
0.337655 -0.113334 0.577366
-0.066253 -0.034287 0.397061
0.000835 0.018885 0.346040
0.172637 -0.134077 0.595098
0.489607 -0.105942 0.492979
0.108514 -0.164005 0.787144
-0.084101 -0.156423 0.646432
-0.116162 -0.084944 0.707586
-0.383104 -0.428037 1.658944
0.177948 -0.180043 0.623498
0.102922 -0.207354 0.690132
-0.137814 -0.117451 0.843264
0.487115 -0.124766 0.544839
0.487169 -0.172224 0.542976
0.182352 0.000193 0.562881
0.272265 -0.114063 0.583356
0.269234 -0.108769 0.577824
0.180456 -0.005731 0.561375
0.263763 -0.107920 0.573680
-1.464862 -0.691748 3.466662
0.254992 -0.194245 0.617675
0.080255 0.006522 0.492186
0.134589 -0.197888 0.792571
0.113640 -0.188613 0.807544
0.201423 0.067537 0.694854
-0.033061 -0.007627 0.645659
-0.036897 -0.194084 0.834033
0.307749 0.488735 1.633241
0.082974 0.112134 0.785280
-0.071979 0.026936 0.592438
0.183799 -0.165648 0.777943
0.173627 -0.003077 0.558077
-0.057625 0.024467 0.329361
0.191037 -0.158020 0.759703
0.085685 -0.207653 0.694432
0.174427 -0.067794 0.683619
0.024874 0.019525 0.311896
0.011787 0.020560 0.290200
0.077360 0.010592 0.419481
0.362307 -0.012737 0.572988
0.366785 -0.109067 0.572294
0.462986 -0.097410 0.496804
0.479138 -0.110035 0.497680
0.065047 -0.115656 0.837685
0.253910 -0.116221 0.621136
0.126225 -0.166684 0.915883
-0.016846 -0.401781 1.480385
0.082711 -0.038351 0.664123
0.132222 0.181003 0.914866
-0.044659 0.015719 0.247866
-0.588227 -0.443871 2.349725
0.175339 -0.160165 0.709046
0.174352 -0.152761 0.741134
-0.067130 0.006955 0.404514
0.046511 0.032536 0.494575
-0.387320 -0.374691 1.733026
-0.016735 -0.035253 0.722665
0.249684 -0.411532 1.452598
0.086755 -0.167151 0.942920
0.111511 -0.170416 0.754492
0.201827 -0.001858 0.551479
0.204311 -0.000298 0.562704
0.206936 0.000295 0.556000
-0.008582 -0.257090 1.301300
-0.161379 -0.297178 1.063724
-0.066237 -0.034135 0.413169
-0.066833 -0.034456 0.414298
0.083659 -0.152869 0.741149
-0.325457 -0.172748 0.918492
-0.135194 -0.047177 0.599650
0.010486 0.013292 0.432370
-0.132704 -0.005685 0.603881
-0.136505 -0.030582 0.632642
-0.107266 0.012835 0.588282
0.177583 -0.175986 0.760164
0.131274 -0.153401 0.782866
-0.066709 0.022980 0.675959
0.043270 0.025872 0.540549
-0.001770 0.017681 0.403449
0.011428 0.013617 0.450202
0.038171 0.015288 0.362605
0.006133 0.015422 0.365736
-0.075703 0.005045 0.407079
-0.063970 -0.014612 0.411788
0.017359 0.018213 0.353889
0.063488 0.012956 0.354394
-0.058482 0.020991 0.350026
0.179225 -0.180901 0.698577
0.163753 -0.130267 0.713191
-0.181299 -0.065938 0.597593
0.465976 -0.020750 0.564561
-0.097665 -0.125225 0.719858
-0.064426 -0.001078 0.415189
0.017911 0.011283 0.422506
-0.101096 0.011147 0.564927
-0.046070 0.021574 0.513174
0.023171 0.016813 0.348616
-0.062726 -0.002625 0.410507
0.492108 -0.122264 0.514661
0.213803 0.002114 0.520020
0.290196 -0.111689 0.578583
0.204336 -0.326958 1.253377
0.017896 0.020728 0.286147
0.092502 0.086680 0.699526
0.011655 0.020510 0.290123
0.223046 -0.006145 0.572900
-0.048925 0.021944 0.349319
0.297863 -0.113774 0.580207
0.263637 -0.109539 0.575510
0.499016 -0.023926 0.552255
0.140763 -0.072805 0.741091
0.175274 -0.066015 0.683996
-0.009506 -0.284753 1.182741
-0.286650 -0.232324 1.214726
0.142320 -0.200329 0.748625
-0.584231 0.328134 1.387362
-0.063185 0.024011 0.336709
-0.067839 0.008293 0.386391
0.033408 0.016677 0.342643
-0.054884 0.019190 0.402025
-0.221298 -0.263457 1.092774
0.191008 -0.000932 0.560435
0.261810 -0.003372 0.551431
0.000633 0.018631 0.345845
0.172221 -0.175561 0.609381
-0.211458 -0.131942 0.631925
-0.065964 0.006473 0.400609
-0.077322 -0.047768 0.440237
-0.012234 0.019788 0.335651
-0.068161 -0.043310 0.400178
-0.058619 0.017513 0.414255
-0.072075 0.026218 0.677647
0.097467 -0.087991 0.760688
-0.065072 0.019250 0.394852
0.170923 -0.157547 0.582730
0.017161 0.012737 0.430659
-0.239339 -0.205634 1.161734
-0.071917 -0.069031 0.400647
-0.029766 0.020770 0.343359
0.021372 0.017510 0.339551
0.502330 -0.150958 0.493451
0.498365 -0.133290 0.480333
-0.241189 -0.238083 1.195049
-0.049744 0.001820 0.739734
-0.150416 -0.147529 0.629039
-0.070790 -0.061293 0.571820
0.167890 -0.084932 0.676683
0.127365 -0.215727 0.756691
-0.039444 0.015610 0.464825
0.488565 -0.026341 0.547033
0.179566 -0.005912 0.560286
0.151233 0.103365 0.976979
0.051190 -0.029210 0.664379
-0.068564 0.009166 0.363397
-0.209040 -0.156243 0.622310
0.171995 -0.107945 0.707223
0.100982 -0.159294 0.784027
-0.194370 -0.010675 0.614146
-0.066809 -0.008911 0.419662
0.006177 0.016216 0.368798
-0.006684 0.018042 0.364729
0.006163 0.015719 0.366853
-0.061496 0.022077 0.445055
-0.004286 0.012242 0.341479
0.098378 -0.127575 0.787444
-0.039358 -0.117491 0.862250
0.099248 -0.147735 0.826668
-0.134966 -0.027904 0.582834
-0.133817 -0.035913 0.599610
-0.136056 -0.034863 0.603974
0.144479 -0.045127 0.665427
0.178468 -0.101639 0.678191
0.148679 -0.086376 0.751488
-0.135353 -0.035200 0.602340
-0.137627 -0.015254 0.614068
-0.136396 -0.014051 0.611923
-0.090124 0.006075 0.582879
0.014276 0.014344 0.416391
0.061721 0.009285 0.431676
-0.002609 -0.004460 0.572466
0.142259 -0.083617 0.723238
-0.038129 -0.003427 0.599627
0.057819 -0.009873 0.646746
0.175829 -0.094308 0.678741
0.014302 0.008949 0.483590
-0.234425 0.120029 0.927390
-0.068118 0.009657 0.347244
-0.049162 0.014839 0.417227
-0.031314 0.021245 0.328227
0.019765 0.018518 0.307323
-0.048231 0.021879 0.348389
0.491956 -0.128328 0.543217
0.470810 -0.105293 0.501552
0.231455 -0.002075 0.552546
0.179849 -0.055348 0.696682
0.244451 -0.107197 0.578236
0.165487 -0.090321 0.679055
0.168077 -0.027104 0.681184
0.370599 -0.149890 0.594642
0.145500 -0.118496 0.703656
0.378661 -0.020597 0.553339
-0.151128 -0.136552 0.638622
-0.311842 -0.299644 1.211866
0.033419 0.013907 0.391498
0.032923 0.013501 0.390175
0.170931 -0.140345 0.770824
0.138109 -0.077446 0.720700
0.157364 -0.145349 0.805008
0.038230 0.010679 0.446092
0.171427 -0.121817 0.748552
0.181190 -0.093277 0.672286
0.251913 -0.104449 0.571961
0.466355 -0.016980 0.561539
0.161894 -0.044123 0.687733
0.194966 -0.116908 0.726795
-0.138039 -0.040745 0.602024
-0.047091 0.013112 0.429832
0.024455 0.019968 0.357890
-0.012391 0.020028 0.336998
-0.097144 -0.072752 0.511798
0.284368 -0.049447 0.501076
0.094472 0.000306 0.632841
-0.130129 0.034846 0.920549
0.089075 -0.066932 0.720887
-0.811189 -1.053094 3.508830
0.012964 0.015638 0.357070
0.064759 0.013618 0.357212
0.175203 -0.159098 0.707033
0.144016 -0.213861 0.752007
0.245375 -0.003240 0.551239
0.246641 -0.067325 0.501803
0.220674 -0.002098 0.552169
0.213085 -0.001724 0.560156
0.150822 -0.171031 0.846253
0.175337 -0.154796 0.849555
0.187519 -0.148341 0.737262
0.080002 0.007671 0.471760
-0.137448 -0.033495 0.633598
0.038151 0.015255 0.362695
-0.066267 -0.037688 0.412409
-0.065633 -0.034183 0.412104
0.169531 -0.138709 0.721960
0.090926 -0.050609 0.693737
0.207888 0.000934 0.501097
0.261135 -0.109070 0.578850
0.286892 -0.110644 0.578322
0.249692 -0.108933 0.579629
0.369115 -0.148589 0.577077
0.181628 -0.017352 0.653014
0.232311 -0.102524 0.571001
0.196543 -0.124486 0.744673
-0.158405 0.008230 0.638685
0.055429 0.006519 0.530256
-0.054400 0.018925 0.401026
-0.162317 -0.017583 0.664992
0.174756 -0.130148 0.611015
-0.122515 -0.060417 0.590898
-0.138679 -0.046272 0.606911
-0.061673 0.003534 0.409133
-0.063771 0.006690 0.399306
-0.246561 -0.194893 1.130555
0.073359 -0.111516 0.829496
0.037337 0.014611 0.360981
0.081159 0.004608 0.517200
-0.009791 0.014528 0.443377
-0.002684 0.018321 0.406437
0.069696 0.013138 0.358017
-0.089981 0.007515 0.580863
-0.210991 -0.111715 0.636671
0.227104 -0.170207 0.590528
0.169384 -0.132813 0.591826
-0.117542 -0.059338 0.580930
-0.139583 -0.027918 0.630922
0.078061 0.011030 0.420507
0.032225 0.012568 0.416947
-0.067795 -0.033169 0.400773
-0.050093 0.014831 0.471126
0.146581 -0.031992 0.667723
0.175622 -0.139366 0.767188
0.117813 -0.181048 0.743100
0.117589 -0.013116 0.646810
0.086885 -0.180089 0.693910
-0.201077 -0.009449 0.604090
0.184042 -0.144799 0.627552
-0.059649 0.020221 0.477650
-0.279356 -0.432420 1.756280
-0.029271 0.020286 0.342081
0.517719 -0.077398 0.516998
-0.067746 -0.042890 0.417833
-0.067592 -0.032996 0.400404
-0.096656 -0.080524 0.525023
-0.052897 -0.038828 1.014097
0.050110 0.009995 0.454573
0.185359 -0.162227 0.708297
-0.021449 -0.418552 1.469825
0.177477 -0.107015 0.715317
-0.307619 -0.253463 1.193218
0.185190 0.000564 0.555529
0.474120 -0.022664 0.549529
0.144405 -0.206352 0.824832
-0.012455 0.020474 0.338646
-0.030955 0.017050 0.417083
0.061437 0.009527 0.432005
-0.065221 0.007171 0.401649
0.361656 -0.015879 0.577650
0.492176 -0.122955 0.535433
0.281878 -0.105305 0.582214
0.519436 -0.146412 0.516104
0.034293 0.017231 0.344366
0.077623 0.010489 0.417088
-0.069660 -0.064186 0.606758
0.172607 -0.142313 0.702863
-0.151604 0.035926 0.552298
0.179391 -0.139576 0.614121
0.182838 -0.157069 0.747388
0.205881 -0.000409 0.515085
0.213116 0.000805 0.531800
-0.062870 0.003517 0.412820
0.107660 -0.189246 0.720671
0.158824 -0.159440 0.871140
-0.274132 -0.258837 1.383045
0.139672 -0.171980 0.811603
0.179717 -0.183865 0.964782
0.116786 -0.013471 0.646147
-0.060567 0.022428 0.571044
-0.267260 -0.238748 1.012451
-0.223410 -0.218619 1.150695
-0.064422 0.004356 0.416015
0.134868 -0.025835 0.681626
0.024225 0.018240 0.398260
0.143438 -0.118820 0.701293
0.502312 -0.163652 0.488280
0.488856 -0.064025 0.484130
0.497432 -0.115548 0.496474
0.181998 -0.122472 0.679688
0.192101 -0.106778 0.702989
0.164570 -0.138883 0.766936
0.218876 -0.161657 0.848669
0.136630 -0.183651 0.747434
0.007423 0.016172 0.388664
-0.070209 -0.050930 0.421509
0.186094 -0.147045 0.634918
0.107306 -0.179543 0.745521
0.178048 -0.150965 0.709380
0.153134 -0.095238 0.686714
0.173294 -0.087614 0.679301
-0.076981 -0.062192 0.585659
0.206717 0.000140 0.508682
0.178403 -0.060686 0.681964
0.175971 -0.129350 0.669873
0.177053 -0.166284 0.719712
0.173884 -0.153308 0.704297
0.178823 -0.006724 0.645089
0.175145 -0.116084 0.673049
0.159955 -0.152637 0.586459
-0.065859 -0.088195 0.574499
0.514645 -0.132542 0.510996
0.075439 -0.104345 0.737415
0.150522 -0.144344 0.844926
0.166666 -0.090450 0.666894
0.177755 -0.142250 0.775657
0.209553 -0.003661 0.548758
0.314949 -0.004949 0.550533
0.193181 -0.111138 0.709826
0.154487 -0.046181 0.655566
0.138152 -0.031802 0.676005
0.299403 -0.111789 0.578230
-0.065626 -0.057314 0.579637
0.089403 -0.002459 0.647926
0.128275 -0.161811 0.723422
-0.020307 0.008710 0.442161
0.038112 0.060399 0.574169
-0.009221 0.003249 0.424162
0.179836 -0.018513 0.648647
-0.008288 0.011394 0.480175
-0.059489 -0.069601 0.560668
-0.050673 -0.048942 0.535676
-0.050127 0.014350 0.545207
0.063524 0.008192 0.471914
0.054228 0.009999 0.453855
0.181809 -0.098347 0.696617
0.025831 0.011315 0.436461
-0.034807 0.014207 0.458621
0.011376 0.016872 0.457800
-0.028700 0.014433 0.481043
0.170985 -0.175360 0.754483
0.176107 -0.124467 0.666909
0.029826 0.013405 0.477448
-0.035546 0.015017 0.461114
0.203501 -0.000383 0.498800
0.204082 -0.000700 0.509551
0.493173 -0.115080 0.490289
0.489233 -0.113735 0.489972
0.495734 -0.112997 0.481670
0.454697 -0.112719 0.492468
0.696952 -0.233862 0.523668
0.209815 -0.000452 0.539194
-0.050307 0.015307 0.427506
0.063819 0.010813 0.436868
-0.030365 0.016088 0.413817
0.178788 -0.055609 0.680553
-0.009845 0.014730 0.443827
-0.163454 -0.102623 0.614076
-0.039177 0.007931 0.500189
-0.174798 -0.065382 0.641602
-0.114655 0.003300 0.592856
0.147341 -0.158477 0.756617
-0.136833 -0.008943 0.607041
0.111823 -0.066165 0.738641
0.142488 -0.032217 0.635752
-0.040623 -0.199105 0.864239
-0.152699 -0.157999 0.801915
-0.029668 -0.104101 0.820139
0.151989 -0.154510 0.876294
0.168751 -0.044966 0.668664
-0.262537 -0.151901 0.861380
0.105504 -0.096614 0.547463
0.140808 -0.031147 0.668184
0.090352 -0.165493 0.744113
0.142152 -0.159548 0.760746
0.140795 -0.028313 0.674311
-0.022196 -0.001732 0.437644
-0.140250 0.067512 0.707178
-0.095070 -0.000437 0.586597
-0.008081 0.011579 0.481514
0.145488 -0.092533 0.681013
0.154782 -0.080395 0.673574
0.141635 -0.049703 0.669520
0.180068 -0.181778 0.769600
0.175127 -0.161527 0.710497
0.199903 -0.000579 0.561947
-0.066787 -0.040577 0.414169
0.010624 0.012823 0.444996
-0.089810 -0.009551 0.580863
0.079597 0.006160 0.488867
-0.065356 0.019362 0.396475
-0.096889 0.017485 0.442629
-0.095918 -0.074501 0.647618
-0.035137 -0.101546 0.807670
-0.012681 -0.038587 0.757870
0.133899 -0.203938 0.856462
0.111660 -0.193778 0.783948
0.117719 -0.013170 0.649293
-0.065655 -0.000655 0.582955
0.129788 -0.163409 0.726505
0.139367 -0.197520 0.846031
-0.059603 0.018769 0.414355
0.498534 -0.161858 0.488913
0.327447 -0.117731 0.588781
0.294050 -0.101619 0.573855
0.018599 0.012881 0.475957
0.068738 0.007596 0.480061
0.165511 -0.043641 0.666801
0.181571 -0.160298 0.718418
0.105622 -0.155856 0.756362
0.172243 -0.137383 0.608345
0.142191 -0.078497 0.728689
0.091496 -0.002031 0.640813
0.146995 -0.025862 0.664924
0.178386 -0.152131 0.732031
0.148335 -0.103401 0.696863
0.093448 0.011455 0.512887
-0.151691 -0.147329 0.632296
-0.031303 0.021194 0.440278
-0.009815 0.014346 0.442614
0.176949 -0.140651 0.596601
-0.116259 0.054419 0.513349
0.047731 0.012404 0.386790
-0.039571 0.009673 0.338506
-0.081529 0.034126 0.432860
0.005694 -0.015733 0.289176
0.153367 -0.069509 0.685603
0.148723 -0.039226 0.671588
-0.036020 -0.179545 0.773751
-0.013440 0.009738 0.562215
-0.036113 -0.180212 0.775964
-0.044570 0.000314 0.705010
0.043690 -0.005137 0.654815
0.159060 -0.077650 0.693552
0.132706 -0.058488 0.691244
-0.270273 -0.221606 1.200560
0.081124 0.006595 0.491613
-0.034929 0.005943 0.430766
-0.131986 -0.102360 0.614899
0.029218 0.012874 0.405941
0.198101 -0.000137 0.563177
0.481952 -0.023517 0.549250
0.210183 -0.000401 0.538390
0.232425 -0.006391 0.572877
0.490117 -0.134542 0.544850
0.234171 -0.099079 0.574364
0.472060 -0.124903 0.557440
0.470184 -0.119997 0.557155
0.178676 -0.001020 0.559418
0.021782 0.002281 0.422832
0.061802 0.009741 0.433053
0.017966 -0.008686 0.663675
-0.004066 0.001888 0.644486
0.171541 -0.277805 1.017783
-0.138184 -0.021457 0.638275
-0.057015 0.008520 0.586553
-0.084115 0.008049 0.594454
0.012725 -0.000761 0.627479
0.279757 -0.399327 1.530365
0.169415 -0.045155 0.676479
-0.114933 0.001422 0.629056
-0.105487 -0.074271 0.608906
-0.048434 0.014366 0.423748
0.135711 -0.040124 0.661354
0.154775 -0.143062 0.796344
-0.136543 -0.029921 0.632892
0.227878 -0.412102 1.297217
0.006475 0.020464 0.381214
-0.091122 -0.014044 0.487848
-0.090508 -0.060400 0.467087
0.185292 -0.111952 0.720366
0.202892 -0.000896 0.507012
0.205202 -0.001161 0.526562
-0.046308 0.013158 0.409389
0.165208 -0.202216 0.805923
0.176939 -0.131503 0.593643
-0.186365 -0.119195 0.801678
0.174928 -0.152055 0.735777
-0.191372 -0.105692 0.742835
-0.119964 0.004786 0.600599
-0.128451 -0.016754 0.616978
-0.063063 -0.061510 0.583330
0.442229 -0.108526 0.524768
0.493728 -0.159835 0.530288
0.480425 -0.117268 0.561147
0.486317 -0.124084 0.517352
0.249170 -0.007845 0.535885
0.496173 -0.018638 0.551451
0.171997 -0.128421 0.720399
0.176890 -0.141423 0.733745
-0.135138 -0.019906 0.631422
0.212545 0.000215 0.541776
0.203888 -0.001363 0.524003
0.202163 -0.114418 0.715696
-0.277107 -0.226190 1.201344
0.128682 -0.260831 0.991092
-0.208734 -0.132179 0.770824
0.178460 -0.175369 0.857144
0.135270 -0.068262 0.723232
0.075435 0.009670 0.411432
0.184761 -0.005161 0.565599
0.493739 -0.126506 0.515832
-0.053511 0.007649 0.693861
0.178298 -0.005998 0.633081
0.116946 -0.159672 0.803786
0.205532 -0.001063 0.525200
0.199559 -0.172935 0.764393
-0.140670 -0.028705 0.593991
0.129325 -0.390344 1.332110
0.145391 -0.169298 0.904695
0.081431 -0.106576 0.799776
0.164798 -0.167053 0.729820
0.155857 -0.138656 0.778318
-0.132554 -0.034814 0.623118
-0.106112 0.004686 0.571341
-0.074625 0.025560 0.490212
-0.122443 -0.059563 0.587905
0.058316 -0.009861 0.651502
-0.032647 0.015224 0.418163
0.065443 0.009954 0.433310
-0.008468 0.015460 0.415588
-0.009906 0.015050 0.446963
-0.229388 -0.123437 0.830285
0.117011 -0.025379 0.696963
-0.035465 0.001504 0.683167
-0.024776 0.015096 0.439667
-0.066180 -0.077004 0.677813
-0.273807 -0.239305 1.181542
0.086981 -0.024597 0.674997
0.132302 -0.197213 0.842174
0.124615 -0.152684 0.742393
0.161695 -0.140341 0.740034
0.159332 -0.119652 0.716647
0.010265 0.013009 0.428629
0.159877 -0.098112 0.658012
0.215620 -0.002632 0.558734
0.208789 -0.001591 0.552219
0.173706 -0.057251 0.689366
-0.103510 -0.066650 0.564094
0.282376 -0.110274 0.575468
0.179285 -0.110301 0.701187
-0.134214 -0.012991 0.607331
-0.109042 0.002778 0.624283
0.172997 -0.152169 0.682295
-0.023640 0.016396 0.415263
0.022853 0.013546 0.454601
-0.145789 -0.126730 0.624161
-0.121747 -0.066138 0.550860
0.175556 -0.167020 0.703442
-0.085088 0.010801 0.483762
0.064004 0.009884 0.435160
-0.009602 0.014422 0.442334
