ply
format ascii 1.0
element vertex 609
property float x
property float y
property float z
property uchar red
property uchar green
property uchar blue
property float size
end_header
-0.019903292774194017 0.0366216185756485 0.20814383285570634 144 238 144 0.5
-0.019920573088739284 0.036682369112241 0.20849168925934106 144 238 144 0.5
-0.01993788954221938 0.03674316802536942 0.20884024059651562 144 238 144 0.5
-0.019955234417204617 0.03680399297963285 0.20918938022836556 144 238 144 0.5
-0.01997259999626527 0.03686482163963029 0.2095390015160262 144 238 144 0.5
-0.019989978561971627 0.03692563166996085 0.2098889978206332 144 238 144 0.5
-0.020007362396893994 0.03698640073522357 0.21023926250332198 144 238 144 0.5
-0.020024743783602666 0.03704710650001753 0.21058968892522817 144 238 144 0.5
-0.020042115004667918 0.037107726628941774 0.21094017044748717 144 238 144 0.5
-0.020059468342660057 0.03716823878659536 0.21129060043123452 144 238 144 0.5
-0.020076796080149367 0.03722862063757736 0.21164087223760575 144 238 144 0.5
-0.020094090499706146 0.03728884984648683 0.21199087922773643 144 238 144 0.5
-0.020111343883900692 0.03734890407792286 0.21234051476276206 144 238 144 0.5
-0.02012854851530328 0.03740876099648446 0.21268967220381801 144 238 144 0.5
-0.020145696676484214 0.03746839826677072 0.21303824491203993 144 238 144 0.5
-0.02016278065001379 0.03752779355338069 0.21338612624856335 144 238 144 0.5
-0.02017979271846229 0.03758692452091346 0.21373320957452374 144 238 144 0.5
-0.020196725164400017 0.03764576883396806 0.21407938825105655 144 238 144 0.5
-0.020213570270397253 0.03770430415714355 0.21442455563929735 144 238 144 0.5
-0.020230320319024296 0.03776250815503901 0.21476860510038165 144 238 144 0.5
-0.020246967592851443 0.03782035849225349 0.215111429995445 144 238 144 0.5
-0.02026350437444898 0.03787783283338606 0.2154529236856229 144 238 144 0.5
-0.020279922946387197 0.03793490884303577 0.21579297953205084 144 238 144 0.5
-0.0202962155912364 0.03799156418580169 0.2161314908958643 144 238 144 0.5
-0.020312374591566863 0.038047776526282884 0.21646835113819884 144 238 144 0.5
-0.020328392229948887 0.038103523529078406 0.21680345362019 144 238 144 0.5
-0.02034426078895277 0.03815878285878731 0.21713669170297323 144 238 144 0.5
-0.020359972551148797 0.03821353218000867 0.21746795874768404 144 238 144 0.5
-0.02037551979910726 0.03826774915734154 0.21779714811545806 144 238 144 0.5
-0.02039089481539845 0.03832141145538498 0.21812415316743064 144 238 144 0.5
-0.02040608988259268 0.038374496738738065 0.21844886726473745 144 238 144 0.5
-0.02042109728326021 0.03842698267199984 0.21877118376851384 144 238 144 0.5
-0.020435909299971355 0.03847884691976937 0.21909099603989546 144 238 144 0.5
-0.0204505182152964 0.038530067146645725 0.21940819744001772 144 238 144 0.5
-0.020464916311805637 0.03858062101722795 0.21972268133001624 144 238 144 0.5
-0.020479095872069364 0.03863048619611513 0.22003434107102654 144 238 144 0.5
-0.02049304917865786 0.0386796403479063 0.22034307002418393 144 238 144 0.5
-0.020506768514141432 0.03872806113720054 0.22064876155062413 144 238 144 0.5
-0.020520246161090362 0.03877572622859689 0.22095130901148255 144 238 144 0.5
-0.020533474402074953 0.03882261328669444 0.22125060576789485 144 238 144 0.5
-0.02054644551966549 0.038868699976092234 0.22154654518099634 144 238 144 0.5
-0.020559151796432265 0.03891396396138933 0.22183902061192262 144 238 144 0.5
-0.020571585514945583 0.0389583829071848 0.22212792542180929 144 238 144 0.5
-0.020583738957775714 0.0390019344780777 0.2224131529717917 144 238 144 0.5
-0.020595604407492966 0.03904459633866709 0.2226945966230055 144 238 144 0.5
-0.020607174146667625 0.039086346153552026 0.22297214973658613 144 238 144 0.5
-0.020618440457869994 0.03912716158733159 0.22324570567366916 144 238 144 0.5
-0.020629395623670353 0.03916702030460481 0.22351515779539002 144 238 144 0.5
-0.020640031987488743 0.03920590015293244 0.2237804002643906 144 238 144 0.5
-0.020650346027126936 0.039243791411042304 0.22404138170094182 144 238 144 0.5
-0.02066034092326214 0.03928070451171919 0.22429813901486537 144 238 144 0.5
-0.020670020469022856 0.03931665172925279 0.22455071718312516 144 238 144 0.5
-0.020679388457537588 0.03935164533793282 0.2247991611826851 144 238 144 0.5
-0.02068844868193483 0.03938569761204898 0.22504351599050904 144 238 144 0.5
-0.020697204935343078 0.039418820825890946 0.2252838265835608 144 238 144 0.5
-0.020705661010890837 0.03945102725374843 0.22552013793880427 144 238 144 0.5
-0.0207138207017066 0.03948232916991115 0.2257524950332033 144 238 144 0.5
-0.020721687800918872 0.03951273884866879 0.22598094284372175 144 238 144 0.5
-0.02072926610165614 0.039542268564311034 0.22620552634732352 144 238 144 0.5
-0.020736559397046918 0.0395709305911276 0.2264262905209724 144 238 144 0.5
-0.0207435714802197 0.039598737203408195 0.2266432803416323 144 238 144 0.5
-0.020750306144302975 0.0396257006754425 0.2268565407862671 144 238 144 0.5
-0.020756767182425258 0.03965183328152023 0.22706611683184066 144 238 144 0.5
-0.02076295838771503 0.039677147295931074 0.22727205345531684 144 238 144 0.5
-0.020768883553300806 0.039701654992964734 0.2274743956336594 144 238 144 0.5
-0.020774546472311074 0.03972536864691091 0.22767318834383238 144 238 144 0.5
-0.020779950937874336 0.0397483005320593 0.22786847656279952 144 238 144 0.5
-0.020785100743119088 0.03977046292269962 0.22806030526752474 144 238 144 0.5
-0.020789999681173836 0.03979186809312154 0.22824871943497183 144 238 144 0.5
-0.020794651545167072 0.03981252831761478 0.22843376404210472 144 238 144 0.5
-0.020799060128227298 0.03983245587046904 0.22861548406588722 144 238 144 0.5
-0.020803229223483013 0.03985166302597402 0.22879392448328326 144 238 144 0.5
-0.020807162624062715 0.03987016205841941 0.22896913027125673 144 238 144 0.5
-0.020810864123094897 0.0398879652420949 0.22914114640677133 144 238 144 0.5
-0.020814337513708064 0.039905084851290205 0.22931001786679106 144 238 144 0.5
-0.02081758658903072 0.03992153316029504 0.22947578962827972 144 238 144 0.5
-0.020820615142191353 0.039937322443399086 0.22963850666820126 144 238 144 0.5
-0.020823426966318465 0.03995246497489203 0.2297982139635194 144 238 144 0.5
-0.02082602585454056 0.0399669730290636 0.22995495649119818 144 238 144 0.5
-0.020828415599986133 0.039980858880203474 0.23010877922820133 144 238 144 0.5
-0.02083059999578368 0.03999413480260136 0.2302597271514927 144 238 144 0.5
-0.020832582835061703 0.040006813070546966 0.23040784523803629 144 238 144 0.5
-0.020834367910948698 0.04001890595832997 0.2305531784647958 144 238 144 0.5
-0.02083595901657317 0.0400304257402401 0.23069577180873524 144 238 144 0.5
-0.02083735994506361 0.04004138469056702 0.23083567024681834 144 238 144 0.5
-0.020838574489548525 0.04005179508360047 0.23097291875600903 144 238 144 0.5
-0.020839606443156408 0.04006166919363012 0.23110756231327123 144 238 144 0.5
-0.020840459599015756 0.04007101929494568 0.23123964589556867 144 238 144 0.5
-0.02084113775025507 0.040079857661836846 0.23136921447986528 144 238 144 0.5
-0.020841644690002853 0.040088196568593325 0.23149631304312496 144 238 144 0.5
-0.020841984211387592 0.0400960482895048 0.2316209865623115 144 238 144 0.5
-0.020842160107537804 0.040103425098860994 0.23174328001438882 144 238 144 0.5
-0.020842176171581975 0.040110339270951596 0.23186323837632078 144 238 144 0.5
-0.0208420361966486 0.0401168030800663 0.2319809066250712 144 238 144 0.5
-0.020841743975866193 0.040122828800494816 0.232096329737604 144 238 144 0.5
-0.020841303302363237 0.040128428706526824 0.23220955269088298 144 238 144 0.5
-0.02084071796926824 0.040133615072452056 0.23232062046187205 144 238 144 0.5
-0.020839991769709697 0.04013840017256018 0.23242957802753503 144 238 144 0.5
-0.02083912849681611 0.04014279628114091 0.2325364703648358 144 238 144 0.5
-0.020838131943715973 0.04014681567248396 0.23264134245073825 144 238 144 0.5
-0.020837005903537795 0.040150470620879 0.23274423926220628 144 238 144 0.5
-0.02083575416941006 0.04015377340061575 0.23284520577620363 144 238 144 0.5
-0.02083438053446128 0.040156736285983895 0.23294428696969427 144 238 144 0.5
-0.020832888791819937 0.040159371551273144 0.23304152781964196 144 238 144 0.5
-0.020831282734614553 0.040161691470773205 0.23313697330301067 144 238 144 0.5
-0.020829566155973606 0.040163708318773764 0.2332306683967642 144 238 144 0.5
-0.020827742849025607 0.040165434369564525 0.23332265807786645 144 238 144 0.5
-0.020825816606899052 0.04016688189743519 0.23341298732328128 144 238 144 0.5
-0.020823791222722435 0.04016806317667545 0.2335017011099725 144 238 144 0.5
-0.020821670489624258 0.04016899048157502 0.23358884441490405 144 238 144 0.5
-0.02081945820073302 0.04016967608642358 0.23367446221503965 144 238 144 0.5
-0.02081715814917722 0.04017013226551085 0.23375859948734332 144 238 144 0.5
-0.02081477412808536 0.04017037129312651 0.23384130120877888 144 238 144 0.5
-0.020812309930585932 0.04017040544356028 0.23392261235631018 144 238 144 0.5
-0.020809769349807442 0.040170246991101846 0.2340025779069011 144 238 144 0.5
-0.02080715617887838 0.040169908210040906 0.23408124283751547 144 238 144 0.5
-0.020804474210927255 0.04016940137466717 0.2341586521251171 144 238 144 0.5
-0.02080172723908255 0.04016873875927033 0.23423485074667003 144 238 144 0.5
-0.020798919056472784 0.040167932638140086 0.23430988367913794 144 238 144 0.5
-0.020796053456226444 0.04016699528556615 0.23438379589948477 144 238 144 0.5
-0.02079313423147203 0.0401659389758382 0.23445663238467437 144 238 144 0.5
-0.02079016517533804 0.04016477598324594 0.23452843811167062 144 238 144 0.5
-0.020787150080952974 0.040163518582079095 0.23459925805743745 144 238 144 0.5
-0.02078409274144533 0.04016217904662733 0.23466913719893853 144 238 144 0.5
-0.020780996949943613 0.04016076965118037 0.23473812051313792 144 238 144 0.5
-0.020777866499576313 0.0401593026700279 0.23480625297699934 144 238 144 0.5
-0.020774705183471926 0.04015779037745963 0.23487357956748675 144 238 144 0.5
-0.020771516794758964 0.04015624504776525 0.234940145261564 144 238 144 0.5
-0.020768305126565918 0.040154678955234474 0.23500599503619488 144 238 144 0.5
-0.02076507397202128 0.04015310437415697 0.23507117386834328 144 238 144 0.5
-0.020761827124253562 0.04015153357882248 0.23513572673497313 144 238 144 0.5
-0.020758568376391257 0.04014997884352067 0.23519969861304826 144 238 144 0.5
-0.020755301521562863 0.04014845244254126 0.23526313447953248 144 238 144 0.5
-0.02075203035289688 0.04014696665017394 0.2353260793113897 144 238 144 0.5
-0.020748758663521806 0.04014553374070842 0.23538857808558378 144 238 144 0.5
-0.020745490246566137 0.040144165988434385 0.23545067577907863 144 238 144 0.5
-0.020742228895158376 0.04014287566764154 0.235512417368838 144 238 144 0.5
-0.02073897840242702 0.040141675052619584 0.23557384783182578 144 238 144 0.5
-0.02073574256150057 0.040140576417658225 0.23563501214500598 144 238 144 0.5
-0.020732525165507523 0.040139592037047145 0.2356959552853422 144 238 144 0.5
-0.02072933000757637 0.04013873418507607 0.23575672222979857 144 238 144 0.5
-0.020726160880835627 0.040138015136034676 0.2358173579553388 144 238 144 0.5
-0.02072302157841378 0.040137447164212664 0.23587790743892678 144 238 144 0.5
-0.020719915893439328 0.040137042543899756 0.23593841565752638 144 238 144 0.5
-0.02071684761904077 0.04013681354938563 0.23599892758810145 144 238 144 0.5
-0.020713820548346612 0.04013677245495998 0.23605948820761585 144 238 144 0.5
-0.02071083847448535 0.04013693153491253 0.23612014249303348 144 238 144 0.5
-0.020707905190585477 0.04013730306353297 0.2361809354213182 144 238 144 0.5
-0.0207050244897755 0.040137899315111 0.23624191196943387 144 238 144 0.5
-0.020702199996161238 0.040138732028873116 0.2363031153830882 144 238 144 0.5
-0.02069943284750363 0.040139805073198406 0.23636456344099235 144 238 144 0.5
-0.020696722289194353 0.04014111632592551 0.2364262545388018 144 238 144 0.5
-0.020694067519179557 0.04014266351469813 0.23648818658619963 144 238 144 0.5
-0.020691467735405415 0.04014444436715999 0.23655035749286912 144 238 144 0.5
-0.020688922135818088 0.04014645661095477 0.23661276516849342 144 238 144 0.5
-0.020686429918363725 0.04014869797372617 0.23667540752275562 144 238 144 0.5
-0.020683990280988503 0.040151166183117926 0.23673828246533898 144 238 144 0.5
-0.020681602421638568 0.04015385896677372 0.23680138790592659 144 238 144 0.5
-0.020679265538260088 0.04015677405233724 0.2368647217542016 144 238 144 0.5
-0.020676978828799222 0.04015990916745221 0.23692828191984724 144 238 144 0.5
-0.02067474149120213 0.04016326203976235 0.23699206631254666 144 238 144 0.5
-0.020672552723414978 0.04016683039691134 0.23705607284198296 144 238 144 0.5
-0.02067041172338393 0.04017061196654288 0.23712029941783938 144 238 144 0.5
-0.020668317689055134 0.0401746044763007 0.2371847439497991 144 238 144 0.5
-0.02066626981837476 0.04017880565382848 0.23724940434754516 144 238 144 0.5
-0.020664267309288966 0.04018321322676994 0.23731427852076087 144 238 144 0.5
-0.020662309359743915 0.040187824922768775 0.2373793643791293 144 238 144 0.5
-0.020660395167685766 0.040192638469468696 0.23744465983233365 144 238 144 0.5
-0.02065852393106068 0.040197651594513384 0.2375101627900571 144 238 144 0.5
-0.02065669484781482 0.04020286202554657 0.2375758711619827 144 238 144 0.5
-0.020654907115894343 0.04020826749021196 0.23764178285779386 144 238 144 0.5
-0.020653159933245416 0.04021386571615324 0.2377078957871735 144 238 144 0.5
-0.020651452497814193 0.040219654431014135 0.23777420785980488 144 238 144 0.5
-0.020649784007546836 0.040225631362438306 0.23784071698537118 144 238 144 0.5
-0.020648153660389513 0.04023179423806952 0.23790742107355556 144 238 144 0.5
-0.02064656065428838 0.040238140785551435 0.23797431803404115 144 238 144 0.5
-0.020645004187189595 0.04024466873252777 0.23804140577651117 144 238 144 0.5
-0.020643483457039327 0.040251375806642224 0.23810868221064868 144 238 144 0.5
-0.020641997661783727 0.04025825973553851 0.238176145246137 144 238 144 0.5
-0.020640545999368962 0.04026531824686032 0.23824379279265914 144 238 144 0.5
-0.020639127667741192 0.04027254906825137 0.23831162275989837 144 238 144 0.5
-0.020637741864846577 0.04027994992735536 0.2383796330575378 144 238 144 0.5
-0.02063638778863128 0.04028751855181599 0.23844782159526057 144 238 144 0.5
-0.02063506463704146 0.040295252669276964 0.23851618628274995 144 238 144 0.5
-0.020633771608023276 0.040303150007381994 0.23858472502968903 144 238 144 0.5
-0.0206325078995229 0.04031120829377478 0.23865343574576095 144 238 144 0.5
-0.02063127270948648 0.04031942525609904 0.23872231634064894 144 238 144 0.5
-0.020630065235860175 0.04032779862199844 0.2387913647240361 144 238 144 0.5
-0.02062888467659016 0.04033632611911672 0.23886057880560568 144 238 144 0.5
-0.020627730229622585 0.04034500547509757 0.23892995649504076 144 238 144 0.5
-0.020626601092903613 0.04035383441758471 0.23899949570202456 144 238 144 0.5
-0.020625496464379407 0.04036281067422181 0.2390691943362402 144 238 144 0.5
-0.020624415541996125 0.0403719319726526 0.23913905030737082 144 238 144 0.5
-0.020623357523699933 0.04038119604052078 0.2392090615250997 144 238 144 0.5
-0.02062232160743699 0.04039060060547005 0.23927922589910988 144 238 144 0.5
-0.020621306991153446 0.04040014339514412 0.2393495413390846 144 238 144 0.5
-0.020620312872795487 0.0404098221371867 0.23942000575470707 144 238 144 0.5
-0.02061933845030925 0.040419634559241475 0.2394906170556603 144 238 144 0.5
-0.020618382921640904 0.040429578388952156 0.23956137315162762 144 238 144 0.5
-0.02061744548473661 0.04043965135396247 0.23963227195229203 144 238 144 0.5
-0.020616525337542532 0.04044985118191609 0.2397033113673368 144 238 144 0.5
-0.020615621678004827 0.04046017560045672 0.2397744893064451 144 238 144 0.5
-0.02061473370406966 0.0404706223372281 0.23984580367930008 144 238 144 0.5
-0.02061386061368319 0.04048118911987389 0.23991725239558487 144 238 144 0.5
-0.020613001604791566 0.040491873676037814 0.23998883336498264 144 238 144 0.5
-0.020612155875340973 0.040502673733363595 0.24006054449717662 144 238 144 0.5
-0.020611322623277556 0.0405135870194949 0.24013238370184994 144 238 144 0.5
-0.020610501046547474 0.04052461126207546 0.24020434888868564 144 238 144 0.5
-0.020609690343096895 0.04053574418874897 0.24027643796736708 144 238 144 0.5
-0.02060888971087198 0.040546983527159144 0.2403486488475774 144 238 144 0.5
-0.02060809834781889 0.04055832700494966 0.24042097943899957 144 238 144 0.5
-0.020607315451883775 0.04056977234976425 0.24049342765131693 144 238 144 0.5
-0.020606540221012815 0.0405813172892466 0.24056599139421264 144 238 144 0.5
-0.02060577185315215 0.04059295955104042 0.24063866857736985 144 238 144 0.5
-0.02060500954624796 0.04060469686278943 0.24071145711047165 144 238 144 0.5
-0.020604252498246396 0.04061652695213731 0.2407843549032013 144 238 144 0.5
-0.020603499907093616 0.04062844754672777 0.24085735986524187 144 238 144 0.5
-0.020602750970735786 0.04064045637420453 0.2409304699062766 144 238 144 0.5
-0.02060200488711907 0.04065255116221127 0.24100368293598862 144 238 144 0.5
-0.02060126085418962 0.04066472963839171 0.24107699686406112 144 238 144 0.5
-0.020600518069893603 0.040676989530389555 0.24115040960017725 144 238 144 0.5
-0.02059977573217718 0.04068932856584849 0.24122391905402013 144 238 144 0.5
-0.020599033038986515 0.04070174447241225 0.241297523135273 144 238 144 0.5
-0.02059828918826776 0.040714234977724514 0.24137121975361903 144 238 144 0.5
-0.020597543377967084 0.040726797809429005 0.2414450068187413 144 238 144 0.5
-0.02059679480603064 0.0407394306951694 0.241518882240323 144 238 144 0.5
-0.020596042670404595 0.040752131362589435 0.2415928439280473 144 238 144 0.5
-0.02059528616903511 0.040764897539332795 0.24166688979159748 144 238 144 0.5
-0.020594524499868348 0.040777726953043186 0.2417410177406565 144 238 144 0.5
-0.02059375686085046 0.04079061733136432 0.2418152256849077 144 238 144 0.5
-0.02059298244992762 0.04080356640193989 0.24188951153403415 144 238 144 0.5
-0.020592200465045975 0.04081657189241361 0.241963873197719 144 238 144 0.5
-0.020591410104151695 0.04082963153042918 0.2420383085856455 144 238 144 0.5
-0.020590610565190945 0.04084274304363031 0.24211281560749678 144 238 144 0.5
-0.020589801046109874 0.04085590415966068 0.24218739217295593 144 238 144 0.5
-0.02058898074485465 0.04086911260616402 0.24226203619170616 144 238 144 0.5
-0.020588148859371436 0.040882366110784024 0.24233674557343068 144 238 144 0.5
-0.02058730458760638 0.0408956624011644 0.24241151822781262 144 238 144 0.5
-0.020586447127505667 0.040908999204948865 0.24248635206453523 144 238 144 0.5
-0.02058557567701544 0.040922374249781096 0.2425612449932815 144 238 144 0.5
-0.02058468943408186 0.04093578526330481 0.24263619492373473 144 238 144 0.5
-0.02058378759665109 0.040949229973163706 0.24271119976557798 144 238 144 0.5
-0.020582869362669294 0.040962706107001506 0.24278625742849452 144 238 144 0.5
-0.020581933930082633 0.040976211392461895 0.24286136582216747 144 238 144 0.5
-0.020580980496837264 0.04098974355718859 0.24293652285627995 144 238 144 0.5
-0.020580008260879353 0.04100330032882528 0.24301172644051522 144 238 144 0.5
-0.02057901642015506 0.04101687943501568 0.24308697448455638 144 238 144 0.5
-0.020578004172610537 0.04103047860340349 0.24316226489808662 144 238 144 0.5
-0.020576970716191956 0.041044095561632424 0.24323759559078903 144 238 144 0.5
-0.020575915248845476 0.04105772803734617 0.2433129644723469 144 238 144 0.5
-0.020574836424324165 0.041071373832720144 0.2433883701695558 144 238 144 0.5
-0.02057372988090803 0.04108503116292346 0.24346381528286254 144 238 144 0.5
-0.020572590218292528 0.04109869838536788 0.24353930378131255 144 238 144 0.5
-0.020571412035209825 0.041112373857597154 0.24361483963522074 144 238 144 0.5
-0.020570189930392065 0.041126055937154946 0.24369042681490188 144 238 144 0.5
-0.020568918502571424 0.041139742981584994 0.24376606929067096 144 238 144 0.5
-0.020567592350480043 0.04115343334843099 0.2438417710328428 144 238 144 0.5
-0.02056620607285009 0.041167125395236655 0.24391753601173216 144 238 144 0.5
-0.020564754268413723 0.04118081747954568 0.243993368197654 144 238 144 0.5
-0.02056323153590311 0.041194507958901776 0.24406927156092323 144 238 144 0.5
-0.020561632474050393 0.04120819519084867 0.24414525007185464 144 238 144 0.5
-0.020559951681587727 0.04122187753293006 0.24422130770076306 144 238 144 0.5
-0.020558183757247293 0.04123555334268964 0.24429744841796344 144 238 144 0.5
-0.02055632329976123 0.04124922097767114 0.24437367619377068 144 238 144 0.5
-0.020554364907861705 0.04126287879541825 0.24444999499849945 144 238 144 0.5
-0.020552303180280874 0.04127652515347471 0.24452640880246487 144 238 144 0.5
-0.020550132715750895 0.04129015840938417 0.2446029215759816 144 238 144 0.5
-0.02054784811300393 0.0413037769206904 0.24467953728936453 144 238 144 0.5
-0.02054544397077213 0.04131737904493707 0.24475625991292865 144 238 144 0.5
-0.020542914887787662 0.0413309631396679 0.2448330934169887 144 238 144 0.5
-0.02054025546278268 0.0413445275624266 0.2449100417718596 144 238 144 0.5
-0.02053746029448934 0.04135807067075688 0.24498710894785622 144 238 144 0.5
-0.020534523981639814 0.04137159082220244 0.2450642989152934 144 238 144 0.5
-0.020531441122966235 0.04138508637430699 0.24514161564448603 144 238 144 0.5
-0.02052820631720079 0.04139855568461423 0.24521906310574887 144 238 144 0.5
-0.020524814163075614 0.041411997110667904 0.24529664526939696 144 238 144 0.5
-0.02052125925932288 0.04142540901001168 0.2453743661057451 144 238 144 0.5
-0.020517536204674742 0.04143878974018928 0.24545222958510798 144 238 144 0.5
-0.020513639597863356 0.04145213765874441 0.24553023967780074 144 238 144 0.5
-0.020509564037620883 0.0414654511232208 0.2456084003541381 144 238 144 0.5
-0.020505304122679483 0.041478728491162124 0.24568671558443492 144 238 144 0.5
-0.02050085445177131 0.04149196812011211 0.24576518933900607 144 238 144 0.5
-0.02049620962362853 0.04150516836761446 0.24584382558816642 144 238 144 0.5
-0.02049136423698329 0.04151832759121289 0.2459226283022309 144 238 144 0.5
-0.020486312890567758 0.0415314441484511 0.24600160145151428 144 238 144 0.5
-0.02048105018311409 0.0415445163968728 0.24608074900633148 144 238 144 0.5
-0.020475570713354443 0.041557542694021704 0.24616007493699732 144 238 144 0.5
-0.020469869080020978 0.0415705213974415 0.2462395832138267 144 238 144 0.5
-0.02046393988184585 0.04158345086467593 0.24631927780713445 144 238 144 0.5
-0.020457777717561215 0.041596329453268674 0.2463991626872355 144 238 144 0.5
-0.020451377185899244 0.04160915552076345 0.2464792418244446 144 238 144 0.5
-0.020444732885592082 0.04162192742470397 0.24655951918907676 144 238 144 0.5
-0.020437839415371896 0.04163464352263393 0.24663999875144677 144 238 144 0.5
-0.020430691373970834 0.04164730217209705 0.24672068448186946 144 238 144 0.5
-0.02042328336012107 0.04165990173063704 0.24680158035065972 144 238 144 0.5
-0.020415609972554746 0.041672440555797594 0.2468826903281324 144 238 144 0.5
-0.02040766581000403 0.041684917005122446 0.24696401838460247 144 238 144 0.5
-0.020399445471201084 0.04169732943615527 0.24704556849038464 144 238 144 0.5
-0.020390943554878055 0.0417096762064398 0.24712734461579386 144 238 144 0.5
-0.02038215465976711 0.04172195567351973 0.247209350731145 144 238 144 0.5
-0.020373073384600402 0.04173416619493877 0.24729159080675286 144 238 144 0.5
-0.0203636943281101 0.04174630612824065 0.2473740688129324 144 238 144 0.5
-0.02035401208902835 0.041758373830969045 0.24745678871999843 144 238 144 0.5
-0.020344021266087316 0.041770367660667676 0.24753975449826576 144 238 144 0.5
-0.020333716458019152 0.04178228597488027 0.24762297011804932 144 238 144 0.5
-0.02032309226355603 0.041794127131150514 0.247706439549664 144 238 144 0.5
-0.020312143281430092 0.041805889487022116 0.24779016676342464 144 238 144 0.5
-0.0203008641103735 0.04181757140003879 0.24787415572964605 144 238 144 0.5
-0.02028924934911842 0.04182917122774423 0.24795841041864314 144 238 144 0.5
-0.020277293596397003 0.041840687327682174 0.2480429348007308 144 238 144 0.5
-0.020264991450941416 0.04185211805739631 0.24812773284622378 144 238 144 0.5
-0.020252337511483802 0.04186346177443035 0.2482128085254371 144 238 144 0.5
-0.020239326376756336 0.041874716836328006 0.24829816580868555 144 238 144 0.5
-0.020225952645491173 0.04188588160063298 0.24838380866628396 144 238 144 0.5
-0.02021221091642047 0.04189695442488898 0.2484697410685473 144 238 144 0.5
-0.020198095788276374 0.04190793366663971 0.2485559669857903 144 238 144 0.5
-0.02018360185979106 0.0419188176834289 0.24864249038832792 144 238 144 0.5
-0.020168723729696674 0.04192960483280025 0.248729315246475 144 238 144 0.5
-0.020153455996725383 0.04194029347229744 0.24881644553054635 144 238 144 0.5
-0.020137793259609345 0.04195088195946421 0.24890388521085693 144 238 144 0.5
-0.020121730117080714 0.04196136865184426 0.24899163825772153 144 238 144 0.5
-0.02010526116787165 0.04197175190698129 0.249079708641455 144 238 144 0.5
-0.02008838101071431 0.04198203008241901 0.24916810033237233 144 238 144 0.5
-0.02007108424434086 0.04199220153570115 0.24925681730078825 144 238 144 0.5
-0.020053365467483448 0.042002264624371385 0.24934586351701768 144 238 144 0.5
-0.020035219278874233 0.04201221770597345 0.24943524295137548 144 238 144 0.5
-0.02001664027724539 0.042022059138051036 0.24952495957417647 144 238 144 0.5
-0.019997623061329056 0.04203178727814786 0.2496150173557356 144 238 144 0.5
-0.0199781622298574 0.04204140048380762 0.24970542026636766 144 238 144 0.5
-0.019958252381562576 0.042050897112574044 0.24979617227638756 144 238 144 0.5
-0.019937888115176744 0.04206027552199081 0.24988727735611013 144 238 144 0.5
-0.019917064029432073 0.04206953406960166 0.2499787394758503 144 238 144 0.5
-0.019895774723060703 0.04207867111295028 0.2500705626059228 144 238 144 0.5
-0.019874014794794816 0.042087685009580385 0.2501627507166426 144 238 144 0.5
-0.01985177884336654 0.04209657411703569 0.2502553077783246 144 238 144 0.5
-0.019829061467508055 0.04210533679285989 0.2503482377612836 144 238 144 0.5
-0.01980585726595152 0.042113971394596696 0.25044154463583446 144 238 144 0.5
-0.01978216083742908 0.04212247627978983 0.250535232372292 144 238 144 0.5
-0.01975796678067291 0.04213084980598298 0.2506293049409712 144 238 144 0.5
-0.019733269694415148 0.042139090330719865 0.2507237663121868 144 238 144 0.5
-0.019708064177387963 0.04214719621154419 0.2508186204562538 144 238 144 0.5
-0.019682344828323525 0.042155165805999664 0.25091387134348697 144 238 144 0.5
-0.019656106245953976 0.04216299747163 0.2510095229442012 144 238 144 0.5
-0.019629343029011474 0.042170689565978914 0.25110557922871135 144 238 144 0.5
-0.019602049776228196 0.04217824044659009 0.2512020441673322 144 238 144 0.5
-0.01957422108633628 0.04218564847100725 0.2512989217303788 144 238 144 0.5
-0.0195458515580679 0.04219291199677409 0.25139621588816585 144 238 144 0.5
-0.019516935790155197 0.042200029381434356 0.2514939306110084 144 238 144 0.5
-0.01948746838133034 0.04220699898253171 0.251592069869221 144 238 144 0.5
-0.019457443930325495 0.04221381915760988 0.2516906376331188 144 238 144 0.5
-0.019426857051193996 0.04222048826822643 0.2517896378520561 144 238 144 0.5
-0.019395706621881923 0.04222700579299234 0.25188906864206934 144 238 144 0.5
-0.019364001588783087 0.04223337384824786 0.2519889143448206 144 238 144 0.5
-0.01933175235102813 0.04223959493092082 0.2520891573145214 144 238 144 0.5
-0.019298969307747705 0.042245671537939046 0.2521897799053834 144 238 144 0.5
-0.01926566285807241 0.04225160616623033 0.2522907644716179 144 238 144 0.5
-0.019231843401132924 0.04225740131272255 0.2523920933674365 144 238 144 0.5
-0.01919752133605985 0.04226305947434351 0.2524937489470509 144 238 144 0.5
-0.019162707061983832 0.042268583148021045 0.2525957135646726 144 238 144 0.5
-0.019127410978035525 0.04227397483068297 0.2526979695745129 144 238 144 0.5
-0.019091643483345536 0.042279237019257114 0.2528004993307837 144 238 144 0.5
-0.019055414977044518 0.04228437221067132 0.2529032851876963 144 238 144 0.5
-0.019018735858263115 0.0422893829018534 0.2530063094994621 144 238 144 0.5
-0.01898161652613194 0.04229427158973118 0.25310955462029305 144 238 144 0.5
-0.018944067379781653 0.0422990407712325 0.2532130029044004 144 238 144 0.5
-0.018906098818342865 0.04230369294328517 0.2533166367059958 144 238 144 0.5
-0.018867721240946225 0.042308230602817035 0.25342043837929074 144 238 144 0.5
-0.01882894504672239 0.042312656246755904 0.2535243902784967 144 238 144 0.5
-0.018789780634801953 0.04231697237202962 0.25362847475782535 144 238 144 0.5
-0.018750238404315587 0.042321181475565996 0.25373267417148804 144 238 144 0.5
-0.018710328754393903 0.04232528605429287 0.2538369708736966 144 238 144 0.5
-0.018670062084167542 0.04232928860513808 0.25394134721866235 144 238 144 0.5
-0.018629448792767168 0.04233319162502943 0.25404578556059687 144 238 144 0.5
-0.01858849927932337 0.04233699761089475 0.2541502682537117 144 238 144 0.5
-0.01854722394296683 0.042340709059661884 0.2542547776522184 144 238 144 0.5
-0.01850563318282815 0.042344328468258655 0.2543592961103285 144 238 144 0.5
-0.01846373739803797 0.04234785833361286 0.25446380598225354 144 238 144 0.5
-0.018421546987726956 0.04235130115265237 0.25456828962220496 144 238 144 0.5
-0.01837907235102571 0.042354659422305 0.25467272938439456 144 238 144 0.5
-0.01833632388706489 0.04235793563949855 0.25477710762303357 144 238 144 0.5
-0.018293311994975105 0.04236113230116087 0.2548814066923337 144 238 144 0.5
-0.018250047073887013 0.042364251904219795 0.2549856089465065 144 238 144 0.5
-0.01820653952293126 0.042367296945603136 0.2550896967397635 144 238 144 0.5
-0.01816279974123845 0.042370269922238725 0.2551936524263162 144 238 144 0.5
-0.01811883812793924 0.042373173331054385 0.2552974583603761 144 238 144 0.5
-0.018074665082164276 0.042376009668977956 0.25540109689615476 144 238 144 0.5
-0.01803029100304417 0.04237878143293725 0.2555045503878638 144 238 144 0.5
-0.017985726289709576 0.0423814911198601 0.25560780118971466 144 238 144 0.5
-0.01794098134129111 0.042384141226674346 0.255710831655919 144 238 144 0.5
-0.017896066556919426 0.0423867342503078 0.2558136241406883 144 238 144 0.5
-0.01785099233572517 0.042389272687688294 0.255916160998234 144 238 144 0.5
-0.017805769076838937 0.04239175903574365 0.25601842458276775 144 238 144 0.5
-0.017760407179391414 0.0423941957914017 0.25612039724850105 144 238 144 0.5
-0.017714917042513195 0.04239658545159027 0.2562220613496455 144 238 144 0.5
-0.017669309065334926 0.04239893051323718 0.25632339924041253 144 238 144 0.5
-0.017623593646987273 0.042401233473270274 0.25642439327501365 144 238 144 0.5
-0.017577781186600826 0.04240349682861737 0.25652502580766057 144 238 144 0.5
-0.017531882083306267 0.042405723076206284 0.2566252791925648 144 238 144 0.5
-0.01748590673623419 0.042407914712964866 0.25672513578393774 144 238 144 0.5
-0.01743986554451525 0.04241007423582094 0.25682457793599106 144 238 144 0.5
-0.0173937689072801 0.042412204141702305 0.25692358800293613 144 238 144 0.5
-0.01734762722365934 0.04241430692753681 0.2570221483389848 144 238 144 0.5
-0.01730145089278364 0.04241638509025229 0.25712024129834826 144 238 144 0.5
-0.01725525031378361 0.04241844112677656 0.2572178492352383 144 238 144 0.5
-0.017209035885789894 0.04242047753403745 0.2573149545038664 144 238 144 0.5
-0.017162818007933147 0.04242249680896278 0.2574115394584439 144 238 144 0.5
-0.017116607079343978 0.042424501448480395 0.25750758645318267 144 238 144 0.5
-0.017070413499153024 0.0424264939495181 0.25760307784229397 144 238 144 0.5
-0.017024247666490952 0.04242847680900374 0.2576979959799895 144 238 144 0.5
-0.01697811998048836 0.042430452523865125 0.25779232322048073 144 238 144 0.5
-0.01693204084027592 0.04243242359103011 0.25788604191797926 144 238 144 0.5
-0.01688602064498423 0.042434392507426484 0.25797913442669657 144 238 144 0.5
-0.01684006979374395 0.04243636176998211 0.2580715831008442 144 238 144 0.5
-0.016794198685685723 0.04243833387562479 0.2581633702946337 144 238 144 0.5
-0.016748417719940158 0.04244031132128238 0.2582544783622766 144 238 144 0.5
-0.016702737295637923 0.042442296603882664 0.25834488965798447 144 238 144 0.5
-0.016657167811909616 0.0424442922203535 0.25843458653596885 144 238 144 0.5
-0.016611719667885903 0.04244630066762271 0.2585235513504413 144 238 144 0.5
-0.01656640326269742 0.04244832444261813 0.25861176645561323 144 238 144 0.5
-0.01652122899547478 0.04245036604226757 0.25869921420569636 144 238 144 0.5
-0.016476207265348652 0.042452427963498865 0.258785876954902 144 238 144 0.5
-0.016431348471449635 0.04245451270323984 0.25887173705744193 144 238 144 0.5
-0.016386663012908385 0.04245662275841833 0.2589567768675276 144 238 144 0.5
-0.016342161288855548 0.042458760625962134 0.2590409787393705 144 238 144 0.5
-0.016297853698421735 0.04246092880279912 0.2591243250271822 144 238 144 0.5
-0.016253750640737613 0.04246312978585709 0.2592067980851742 144 238 144 0.5
-0.01620986251493378 0.04246536607206389 0.25928838026755807 144 238 144 0.5
-0.016166199720140897 0.042467640158347315 0.2593690539285455 144 238 144 0.5
-0.01612277265548961 0.04246995454163522 0.2594488014223478 144 238 144 0.5
-0.016079591720110524 0.04247231171885543 0.2595276051031766 144 238 144 0.5
-0.01603666731313429 0.042474714186935755 0.2596054473252434 144 238 144 0.5
-0.015994009833691564 0.04247716444280404 0.2596823104427598 144 238 144 0.5
-0.01595162968091295 0.04247966498338811 0.25975817680993735 144 238 144 0.5
-0.015909537253929105 0.04248221830561577 0.25983302878098746 144 238 144 0.5
-0.015867742951870645 0.042484826906414884 0.2599068487101218 144 238 144 0.5
-0.01582625717386822 0.04248749328271325 0.2599796189515519 144 238 144 0.5
-0.01578509031905248 0.04249021993143871 0.26005132185948926 144 238 144 0.5
-0.01574425278655403 0.042493009349519086 0.26012193978814546 144 238 144 0.5
-0.01570375497550354 0.042495864033882204 0.26019145509173197 144 238 144 0.5
-0.015663607285031605 0.04249878648145589 0.2602598501244604 144 238 144 0.5
-0.015623820114268888 0.04250177918916797 0.2603271072405422 144 238 144 0.5
-0.015584403862346037 0.042504844653946286 0.260393208794189 144 238 144 0.5
-0.01554536892839365 0.04250798537271864 0.26045813713961224 144 238 144 0.5
-0.015506725711542407 0.042511203842412894 0.2605218746310236 144 238 144 0.5
-0.015468484610922905 0.04251450255995684 0.26058440362263446 144 238 144 0.5
-0.015430656025665797 0.04251788402227832 0.26064570646865654 144 238 144 0.5
-0.01539325035490173 0.04252135072630517 0.26070576552330127 144 238 144 0.5
-0.015356277997761316 0.04252490516896519 0.26076456314078006 144 238 144 0.5
-0.015319749353375206 0.04252854984718624 0.26082208167530474 144 238 144 0.5
-0.015283674820874046 0.04253228725789614 0.26087830348108665 144 238 144 0.5
-0.015248064799388445 0.04253611989802268 0.26093321091233734 144 238 144 0.5
-0.015212929346741849 0.04254005021860465 0.2609867870142429 144 238 144 0.5
-0.015178269334931046 0.042544079435637094 0.26103903342864226 144 238 144 0.5
-0.015144075640388329 0.04254820742120144 0.26108997203333695 144 238 144 0.5
-0.015110338635928776 0.042552433979667216 0.2611396257256989 144 238 144 0.5
-0.015077048694367427 0.042556758915403996 0.26118801740309977 144 238 144 0.5
-0.015044196188519371 0.0425611820327813 0.2612351699629113 144 238 144 0.5
-0.015011771491199654 0.04256570313616869 0.26128110630250534 144 238 144 0.5
-0.014979764975223353 0.042570322029935735 0.26132584931925357 144 238 144 0.5
-0.014948167013405544 0.04257503851845196 0.2613694219105278 144 238 144 0.5
-0.014916967978561273 0.042579852406086915 0.2614118469736998 144 238 144 0.5
-0.014886158243505627 0.04258476349721018 0.26145314740614123 144 238 144 0.5
-0.014855728181053648 0.04258977159619127 0.261493346105224 144 238 144 0.5
-0.014825668164020417 0.04259487650739975 0.2615324659683198 144 238 144 0.5
-0.014795968565221009 0.04260007803520518 0.2615705298928004 144 238 144 0.5
-0.01476661975747047 0.04260537598397709 0.2616075607760376 144 238 144 0.5
-0.014737612113583888 0.04261077015808504 0.261643581515403 144 238 144 0.5
-0.014708936006376305 0.042616260361898584 0.26167861500826856 144 238 144 0.5
-0.0146805818086628 0.042621846399787264 0.261712684152006 144 238 144 0.5
-0.014652539893258449 0.04262752807612064 0.26174581184398704 144 238 144 0.5
-0.0146248006329783 0.042633305195268256 0.2617780209815834 144 238 144 0.5
-0.014597354400637422 0.04263917756159966 0.2618093344621669 144 238 144 0.5
-0.014570191569050902 0.0426451449794844 0.2618397751831093 144 238 144 0.5
-0.014543302511033777 0.04265120725329204 0.2618693660417824 144 238 144 0.5
-0.014516677599401138 0.04265736418739211 0.26189812993555783 144 238 144 0.5
-0.014490307206968032 0.04266361558615419 0.2619260897618076 144 238 144 0.5
-0.014464181706549532 0.04266996125394779 0.2619532684179031 144 238 144 0.5
-0.014438291470960716 0.04267640099514249 0.26197968880121647 144 238 144 0.5
-0.014412626873016629 0.04268293461410784 0.2620053738091193 144 238 144 0.5
-0.01438717828553236 0.04268956191521337 0.2620303463389833 144 238 144 0.5
-0.014361936081322947 0.042696282702828645 0.2620546292881803 144 238 144 0.5
-0.014336890633203477 0.04270309678132321 0.2620782455540821 144 238 144 0.5
-0.014312032313989023 0.042710003955066626 0.26210121803406045 144 238 144 0.5
-0.014287351496494632 0.04271700402842843 0.262123569625487 144 238 144 0.5
-0.014262838553535379 0.042724096805778156 0.2621453232257336 144 238 144 0.5
-0.014238483857926327 0.042731282091485405 0.26216650173217204 144 238 144 0.5
-0.014214277782482545 0.042738559689919686 0.26218712804217403 144 238 144 0.5
-0.014190210700019105 0.04274592940545056 0.26220722505311134 144 238 144 0.5
-0.014166272983351057 0.04275339104244757 0.2622268156623558 144 238 144 0.5
-0.014142455005293477 0.04276094440528028 0.26224592276727904 144 238 144 0.5
-0.014118747138661441 0.04276858929831823 0.2622645692652529 144 238 144 0.5
-0.014095139756269998 0.04277632552593097 0.2622827780536492 144 238 144 0.5
-0.01407162323093423 0.042784152892488055 0.2623005720298396 144 238 144 0.5
-0.014048187935469187 0.04279207120235903 0.26231797409119584 144 238 144 0.5
-0.014024824242689941 0.04280008025991346 0.26233500713508984 144 238 144 0.5
-0.01400152252541157 0.042808179869520874 0.2623516940588932 144 238 144 0.5
-0.013978273156449122 0.04281636983555083 0.2623680577599778 144 238 144 0.5
-0.013955066508617685 0.04282464996237289 0.26238412113571535 144 238 144 0.5
-0.013931892954732298 0.042833020054356574 0.2623999070834776 144 238 144 0.5
-0.013908742867608043 0.04284147991587148 0.26241543850063637 144 238 144 0.5
-0.01388560662005999 0.0428500293512871 0.26243073828456326 144 238 144 0.5
-0.013862474584903195 0.04285866816497303 0.2624458293326302 144 238 144 0.5
-0.013839337134952735 0.04286739616129881 0.26246073454220903 144 238 144 0.5
-0.013816184643023663 0.042876213144633975 0.26247547681067124 144 238 144 0.5
-0.013793007481931054 0.0428851189193481 0.26249007903538885 144 238 144 0.5
-0.013769796024489977 0.042894113289810694 0.2625045641137334 144 238 144 0.5
-0.013746540643515489 0.04290319606039135 0.2625189549430768 144 238 144 0.5
-0.01372323171182267 0.0429123670354596 0.26253327442079083 144 238 144 0.5
-0.013699859602226565 0.042921626019385 0.26254754544424713 144 238 144 0.5
-0.013676414687542255 0.042930972816537086 0.2625617909108176 144 238 144 0.5
-0.013652887340584811 0.042940407231285414 0.26257603371787386 144 238 144 0.5
-0.013629267934169286 0.04294992906799955 0.2625902967627878 144 238 144 0.5
-0.013605546841110747 0.042959538131049024 0.26260460294293103 144 238 144 0.5
-0.013581714434224278 0.042969234224803386 0.2626189751556755 144 238 144 0.5
-0.013557761086324923 0.04297901715363221 0.2626334362983929 144 238 144 0.5
-0.013533677170227765 0.04298888672190502 0.2626480092684549 144 238 144 0.5
-0.013509453058747857 0.042998842733991384 0.2626627169632334 144 238 144 0.5
-0.01348507912470027 0.043008884994260844 0.2626775822801001 144 238 144 0.5
-0.013460545740900078 0.043019013307082944 0.2626926281164267 144 238 144 0.5
-0.013435843280162334 0.043029227476827234 0.262707877369585 144 238 144 0.5
-0.013410962115302115 0.04303952730786328 0.2627233529369468 144 238 144 0.5
-0.01338589261913448 0.04304991260456062 0.2627390777158839 144 238 144 0.5
-0.013360625164474497 0.04306038317128882 0.262755074603768 144 238 144 0.5
-0.013335150124137243 0.04307093881241739 0.2627713664979709 144 238 144 0.5
-0.013309457870937763 0.04308157933231593 0.26278797629586426 144 238 144 0.5
-0.013283538777691145 0.043092304535353954 0.26280492689481993 144 238 144 0.5
-0.013257383217212437 0.043103114225901025 0.2628222411922097 144 238 144 0.5
-0.013230981562316713 0.04311400820832671 0.2628399420854053 144 238 144 0.5
-0.013204324185819048 0.043124986287000525 0.2628580524717784 144 238 144 0.5
-0.013177401460534493 0.04313604826629205 0.26287659524870094 144 238 144 0.5
-0.013150203759278127 0.04314719395057081 0.2628955933135445 144 238 144 0.5
-0.013122721454865 0.04315842314420638 0.262915069563681 144 238 144 0.5
-0.01309494492011019 0.04316973565156829 0.2629350468964821 144 238 144 0.5
-0.013066864527828775 0.04318113127702611 0.2629555482093196 144 238 144 0.5
-0.013038470650835793 0.043192609824949366 0.2629765963995653 144 238 144 0.5
-0.013009753661946325 0.043204171099707624 0.2629982143645908 144 238 144 0.5
-0.012980703933975449 0.04321581490567042 0.26302042500176803 144 238 144 0.5
-0.01295131183973821 0.04322754104720734 0.26304325120846883 144 238 144 0.5
-0.012921567752049693 0.043239349328687886 0.2630667158820647 144 238 144 0.5
-0.012891462043724947 0.04325123955448164 0.26309084191992754 144 238 144 0.5
-0.012860985087579041 0.043263211528958144 0.2631156522194292 144 238 144 0.5
-0.012830127256427059 0.04327526505648695 0.2631411696779412 144 238 144 0.5
-0.012798878923084045 0.04328739994143759 0.2631674171928356 144 238 144 0.5
-0.012767230460365082 0.04329961598817964 0.26319441766148394 144 238 144 0.5
-0.012735172241085226 0.04331191300108265 0.2632221939812581 144 238 144 0.5
-0.012702694638059536 0.04332429078451615 0.2632507690495298 144 238 144 0.5
-0.01266978802410311 0.0433367491428497 0.2632801657636708 144 238 144 0.5
-0.012636442772030972 0.043349287880452836 0.26331040702105285 144 238 144 0.5
-0.012602649254658227 0.043361906801695146 0.26334151571904774 144 238 144 0.5
-0.012568397844799909 0.043374605710946146 0.26337351475502724 144 238 144 0.5
-0.012533678915271095 0.04338738441257539 0.2634064270263631 144 238 144 0.5
-0.012498482838886875 0.04340024271095244 0.26344027543042703 144 238 144 0.5
-0.01246280121389689 0.043413180309142874 0.2634750804517478 144 238 144 0.5
-0.012426636114524518 0.04342619604418674 0.26351084194798463 144 238 144 0.5
-0.012389994929577425 0.04343928831377918 0.2635475493125437 144 238 144 0.5
-0.012352885089469617 0.043452455512175824 0.26358519185690965 144 238 144 0.5
-0.012315314024615097 0.043465696033632296 0.26362375889256723 144 238 144 0.5
-0.01227728916542783 0.04347900827240424 0.2636632397310012 144 238 144 0.5
-0.012238817942321815 0.043492390622747276 0.26370362368369615 144 238 144 0.5
-0.012199907785711063 0.043505841478917055 0.2637449000621368 144 238 144 0.5
-0.012160566126009534 0.04351935923516919 0.26378705817780795 144 238 144 0.5
-0.012120800393631247 0.04353294228575933 0.2638300873421942 144 238 144 0.5
-0.012080618018990163 0.04354658902494311 0.26387397686678027 144 238 144 0.5
-0.01204002643250029 0.04356029784697616 0.26391871606305084 144 238 144 0.5
-0.011999033064575629 0.043574067146114094 0.26396429424249074 144 238 144 0.5
-0.01195764534563014 0.04358789531661258 0.2640107007165845 144 238 144 0.5
-0.01191587070607785 0.043601780752727214 0.2640579247968169 144 238 144 0.5
-0.011873716576332714 0.04361572184871366 0.2641059557946726 144 238 144 0.5
-0.011831190386808738 0.04362971699882755 0.26415478302163636 144 238 144 0.5
-0.011788299567919934 0.04364376459732448 0.26420439578919286 144 238 144 0.5
-0.01174505155008025 0.04365786303846013 0.2642547834088268 144 238 144 0.5
-0.011701453763703719 0.0436720107164901 0.26430593519202283 144 238 144 0.5
-0.011657513639204291 0.04368620602567004 0.2643578404502657 144 238 144 0.5
-0.011613238606995981 0.04370044736025558 0.2644104884950402 144 238 144 0.5
-0.011568636097492788 0.043714733114502344 0.2644638686378308 144 238 144 0.5
-0.011523713541108677 0.043729061682665986 0.2645179701901224 144 238 144 0.5
-0.011478478368257647 0.04374343145900212 0.2645727824633996 144 238 144 0.5
-0.011432938009353712 0.0437578408377664 0.2646282947691471 144 238 144 0.5
-0.011387099894810826 0.043772288213214425 0.2646844964188497 144 238 144 0.5
-0.011340971455043012 0.04378677197960185 0.264741376723992 144 238 144 0.5
-0.011294560120464233 0.043801290531184325 0.26479892499605884 144 238 144 0.5
-0.011247873321488489 0.04381584226221746 0.2648571305465347 144 238 144 0.5
-0.011200918488529788 0.04383042556695687 0.26491598268690436 144 238 144 0.5
-0.011153703052002091 0.043845038839658235 0.2649754707286527 144 238 144 0.5
-0.01110623444231942 0.04385968047457716 0.2650355839832641 144 238 144 0.5
-0.011058520089895734 0.04387434886596929 0.26509631176222354 144 238 144 0.5
-0.011010567425145038 0.043889042408090245 0.26515764337701564 144 238 144 0.5
-0.010962383878481337 0.04390375949519565 0.26521956813912495 144 238 144 0.5
-0.010913976880318591 0.04391849852154116 0.26528207536003634 144 238 144 0.5
-0.010865353861070827 0.04393325788138241 0.26534515435123457 144 238 144 0.5
-0.010816522251151997 0.04394803596897502 0.2654087944242041 144 238 144 0.5
-0.010767489480976108 0.04396283117857463 0.26547298489042986 144 238 144 0.5
-0.010718262980957172 0.043977641904436864 0.26553771506139645 144 238 144 0.5
-0.010668850181509142 0.04399246654081736 0.26560297424858853 144 238 144 0.5
-0.010619258513046043 0.04400730348197175 0.2656687517634909 144 238 144 0.5
-0.010569495405981833 0.044022151122155684 0.26573503691758815 144 238 144 0.5
-0.010519568290730516 0.044037007855624775 0.26580181902236505 144 238 144 0.5
-0.010469484597706104 0.044051872076634656 0.26586908738930626 144 238 144 0.5
-0.010419251757322553 0.04406674217944098 0.2659368313298966 144 238 144 0.5
-0.010368877199993866 0.044081616558299355 0.2660050401556206 144 238 144 0.5
-0.010318368356134056 0.044096493607465426 0.26607370317796303 144 238 144 0.5
-0.010267732656157076 0.044111371721194836 0.26614280970840865 144 238 144 0.5
-0.010216977530476954 0.0441262492937432 0.2662123490584421 144 238 144 0.5
-0.01016611040950764 0.04414112471936616 0.266282310539548 144 238 144 0.5
-0.010115138723663148 0.04415599639231936 0.2663526834632112 144 238 144 0.5
-0.010064069903357486 0.044170862706858424 0.2664234571409164 144 238 144 0.5
-0.010012911379004603 0.04418572205723896 0.26649462088414816 144 238 144 0.5
-0.009961670581018529 0.04420057283771663 0.26656616400439126 144 238 144 0.5
-0.009910354939813222 0.044215413442547084 0.2666380758131304 144 238 144 0.5
