ply
format ascii 1.0
element vertex 598
property float x
property float y
property float z
property uchar red
property uchar green
property uchar blue
property float size
end_header
0.01458151199917194 -0.0033674860031218177 0.18550369627345384 144 238 144 0.5
0.014607885994390758 -0.0033722962158249208 0.1855262715085404 144 238 144 0.5
0.01463412850350613 -0.0033770400101178835 0.18554877388194108 144 238 144 0.5
0.01466023670435528 -0.003381715302052492 0.18557120307446529 144 238 144 0.5
0.014686207774775492 -0.003386320007680541 0.18559355876692277 144 238 144 0.5
0.014712038892603982 -0.0033908520430538146 0.18561584064012293 144 238 144 0.5
0.014737727235677994 -0.0033953093242241007 0.18563804837487535 144 238 144 0.5
0.014763269981834748 -0.003399689767243185 0.18566018165198953 144 238 144 0.5
0.014788664308911528 -0.003403991288162863 0.18568224015227514 144 238 144 0.5
0.014813907394745552 -0.0034082118030349167 0.18570422355654154 144 238 144 0.5
0.014838996417174045 -0.0034123492279111334 0.18572613154559844 144 238 144 0.5
0.014863928554034284 -0.0034164014788433074 0.1857479638002553 144 238 144 0.5
0.014888700983163491 -0.003420366471883222 0.1857697200013216 144 238 144 0.5
0.014913310882398898 -0.003424242123082665 0.18579139982960702 144 238 144 0.5
0.01493775542957777 -0.0034280263484934284 0.18581300296592101 144 238 144 0.5
0.014962031802537338 -0.0034317170641672986 0.18583452909107318 144 238 144 0.5
0.01498613717911482 -0.00343531218615606 0.18585597788587296 144 238 144 0.5
0.015010068737147499 -0.003438809630511507 0.18587734903112998 144 238 144 0.5
0.015033823654472592 -0.0034422073132854237 0.18589864220765379 144 238 144 0.5
0.015057399108927332 -0.0034455031505295974 0.18591985709625386 144 238 144 0.5
0.015080792278348985 -0.0034486950582958203 0.18594099337773978 144 238 144 0.5
0.015104000370975562 -0.0034517809813832973 0.18596205073376196 144 238 144 0.5
0.015127022171780552 -0.0034547603555752124 0.18598302888958199 144 238 144 0.5
0.015149858777181068 -0.0034576348023893618 0.1860039276343943 144 238 144 0.5
0.015172511467709914 -0.003460406117446057 0.18602474676248562 144 238 144 0.5
0.015194981523899885 -0.0034630760963656106 0.18604548606814283 144 238 144 0.5
0.015217270226283844 -0.003465646534768342 0.18606614534565274 144 238 144 0.5
0.015239378855394592 -0.003468119228274564 0.1860867243893022 144 238 144 0.5
0.015261308691764945 -0.0034704959725045895 0.18610722299337804 144 238 144 0.5
0.015283061015927715 -0.0034727785630787327 0.18612764095216697 144 238 144 0.5
0.015304637108415743 -0.00347496879561731 0.18614797805995595 144 238 144 0.5
0.015326038249761843 -0.003477068465740635 0.1861682341110317 144 238 144 0.5
0.015347265720498823 -0.0034790793690690227 0.18618840889968122 144 238 144 0.5
0.015368320801159522 -0.0034810033012227875 0.1862085022201911 144 238 144 0.5
0.01538920477227675 -0.003482842057822244 0.18622851386684836 144 238 144 0.5
0.015409918914383315 -0.003484597434487705 0.18624844363393972 144 238 144 0.5
0.015430464508012064 -0.0034862712268394877 0.186268291315752 144 238 144 0.5
0.015450842833695804 -0.003487865230497905 0.1862880567065721 144 238 144 0.5
0.015471055171967342 -0.003489381241083271 0.18630773960068678 144 238 144 0.5
0.015491102803359523 -0.003490821054215902 0.18632733979238292 144 238 144 0.5
0.015510987008405157 -0.003492186465516111 0.18634685707594725 144 238 144 0.5
0.015530709067637047 -0.0034934792706042125 0.18636629124566673 144 238 144 0.5
0.015550270261588046 -0.003494701265100522 0.1863856420958281 144 238 144 0.5
0.01556967187079095 -0.0034958542446253535 0.18640490942071816 144 238 144 0.5
0.015588915175778581 -0.003496940004799021 0.18642409301462376 144 238 144 0.5
0.015608001457083773 -0.00349796034124184 0.1864431926718318 144 238 144 0.5
0.01562693199523934 -0.0034989170495741246 0.186462208186629 144 238 144 0.5
0.015645708070778086 -0.003499811925416189 0.18648113935330227 144 238 144 0.5
0.015664330964232854 -0.0035006467643883474 0.18649998596613834 144 238 144 0.5
0.015682801956136465 -0.0035014233621109155 0.18651874781942418 144 238 144 0.5
0.01570112232702171 -0.0035021435142042067 0.18653742470744644 144 238 144 0.5
0.01571929335742145 -0.003502809016288536 0.18655601642449207 144 238 144 0.5
0.015737316327868473 -0.003503421663984218 0.18657452276484784 144 238 144 0.5
0.015755192518895615 -0.003503983252911567 0.18659294352280062 144 238 144 0.5
0.01577292321103568 -0.0035044955786908976 0.18661127849263714 144 238 144 0.5
0.015790509684821513 -0.0035049604369425235 0.18662952746864436 144 238 144 0.5
0.01580795322078592 -0.0035053796232867615 0.186647690245109 144 238 144 0.5
0.01582525509946171 -0.0035057549333439232 0.18666576661631795 144 238 144 0.5
0.01584241660138173 -0.0035060881627343252 0.18668375637655804 144 238 144 0.5
0.01585943900707878 -0.003506381107078281 0.18670165932011595 144 238 144 0.5
0.015876323597085684 -0.003506635561996106 0.18671947524127874 144 238 144 0.5
0.01589307165193527 -0.003506853323108113 0.18673720393433305 144 238 144 0.5
0.01590968445216035 -0.003507036186034618 0.18675484519356575 144 238 144 0.5
0.015926163278293746 -0.003507185946395936 0.1867723988132637 144 238 144 0.5
0.015942509410868284 -0.00350730439981238 0.18678986458771374 144 238 144 0.5
0.01595872413041678 -0.0035073933419042646 0.18680724231120263 144 238 144 0.5
0.01597480871747204 -0.003507454568291906 0.18682453177801725 144 238 144 0.5
0.015990764452566912 -0.0035074898745956168 0.1868417327824444 144 238 144 0.5
0.0160065926162342 -0.0035075010564357117 0.18685884511877088 144 238 144 0.5
0.01602229448900672 -0.003507489909432507 0.18687586858128358 144 238 144 0.5
0.016037871351417307 -0.003507458229206315 0.1868928029642693 144 238 144 0.5
0.016053324483998772 -0.0035074078113774515 0.18690964806201482 144 238 144 0.5
0.016068655167283927 -0.003507340451566231 0.18692640366880697 144 238 144 0.5
0.016083864681805615 -0.003507257945392967 0.1869430695789327 144 238 144 0.5
0.01609895430809664 -0.003507162088477976 0.1869596455866787 144 238 144 0.5
0.016113925326689822 -0.00350705467644157 0.18697613148633183 144 238 144 0.5
0.016128779018117972 -0.003506937504904064 0.18699252707217887 144 238 144 0.5
0.016143516662913943 -0.0035068123694857755 0.1870088321385068 144 238 144 0.5
0.016158139541610526 -0.0035066810658070154 0.18702504647960225 144 238 144 0.5
0.016172648934740543 -0.003506545389488099 0.18704116988975217 144 238 144 0.5
0.01618704612283683 -0.003506407136149342 0.1870572021632434 144 238 144 0.5
0.0162013323864322 -0.0035062681014110587 0.18707314309436263 144 238 144 0.5
0.016215509006059465 -0.0035061300808935628 0.18708899247739683 144 238 144 0.5
0.016229577262251455 -0.003505994870217169 0.18710475010663274 144 238 144 0.5
0.016243538435540994 -0.003505864265002192 0.18712041577635727 144 238 144 0.5
0.016257393806460876 -0.0035057400608689455 0.1871359892808571 144 238 144 0.5
0.01627114465554396 -0.003505624053437746 0.18715147041441918 144 238 144 0.5
0.016284792263323043 -0.003505518038328906 0.18716685897133034 144 238 144 0.5
0.01629833791033094 -0.0035054238111627413 0.1871821547458773 144 238 144 0.5
0.016311782877100486 -0.003505343167559566 0.187197357532347 144 238 144 0.5
0.016325128444164505 -0.0035052779031396948 0.18721246712502623 144 238 144 0.5
0.016338375892055796 -0.0035052298135234417 0.18722748331820177 144 238 144 0.5
0.016351526501307195 -0.003505200694331121 0.18724240590616043 144 238 144 0.5
0.01636458155245152 -0.003505192341183048 0.18725723468318914 144 238 144 0.5
0.016377542326021587 -0.0035052065496995366 0.18727196944357466 144 238 144 0.5
0.016390410102550223 -0.003505245115500901 0.1872866099816038 144 238 144 0.5
0.016403186162570242 -0.003505309834207457 0.1873011560915634 144 238 144 0.5
0.01641587178661447 -0.0035054025014395183 0.18731560756774032 144 238 144 0.5
0.016428468255215715 -0.0035055249128173997 0.18732996420442136 144 238 144 0.5
0.016440976848906812 -0.0035056788639614153 0.1873442257958933 144 238 144 0.5
0.016453398848220575 -0.0035058661504918792 0.187358392136443 144 238 144 0.5
0.016465735533689817 -0.0035060885680291073 0.18737246302035732 144 238 144 0.5
0.016477988185847378 -0.003506347912193413 0.18738643824192305 144 238 144 0.5
0.016490158085226064 -0.003506645978605112 0.18740031759542705 144 238 144 0.5
0.01650224651235868 -0.003506984562884516 0.1874141008751561 144 238 144 0.5
0.01651425474777808 -0.0035073654606519425 0.18742778787539702 144 238 144 0.5
0.016526184072017072 -0.0035077904675277056 0.18744137839043667 144 238 144 0.5
0.016538035765608458 -0.003508261379132119 0.1874548722145619 144 238 144 0.5
0.01654981110908508 -0.003508779991085496 0.18746826914205944 144 238 144 0.5
0.016561511382979753 -0.003509348099008153 0.18748156896721624 144 238 144 0.5
0.016573137867825286 -0.0035099674985204043 0.18749477148431898 144 238 144 0.5
0.016584691844154516 -0.003510639985242565 0.18750787648765463 144 238 144 0.5
0.016596174592500255 -0.0035113673547949474 0.18752088377150994 144 238 144 0.5
0.01660758739339531 -0.0035121514027978674 0.18753379313017168 144 238 144 0.5
0.01661893152737253 -0.003512993924871639 0.18754660435792678 144 238 144 0.5
0.016630208274964718 -0.003513896716636579 0.18755931724906205 144 238 144 0.5
0.01664141891670469 -0.0035148615737129983 0.18757193159786428 144 238 144 0.5
0.016652564733125277 -0.003515890291721214 0.18758444719862033 144 238 144 0.5
0.016663647004759294 -0.003516984666281539 0.18759686384561694 144 238 144 0.5
0.016674667012139554 -0.0035181464930142876 0.187609181333141 144 238 144 0.5
0.0166856260357989 -0.003519377567539778 0.1876213994554794 144 238 144 0.5
0.01669652535627013 -0.0035206796854783205 0.18763351800691885 144 238 144 0.5
0.01670736689275039 -0.0035220542453190257 0.18764553761489383 144 238 144 0.5
0.016718155911971573 -0.003523500564002867 0.18765746327375046 144 238 144 0.5
0.016728898773699773 -0.0035250172788055117 0.18766930140371507 144 238 144 0.5
0.016739601838311823 -0.0035266030266228377 0.18768105842581065 144 238 144 0.5
0.016750271466184567 -0.003528256444350728 0.18769274076106035 144 238 144 0.5
0.01676091401769486 -0.003529976168885066 0.18770435483048725 144 238 144 0.5
0.016771535853219544 -0.0035317608371217292 0.18771590705511448 144 238 144 0.5
0.016782143333135456 -0.0035336090859566 0.18772740385596498 144 238 144 0.5
0.016792742817819447 -0.0035355195522855615 0.18773885165406196 144 238 144 0.5
0.016803340667648367 -0.003537490873004493 0.1877502568704284 144 238 144 0.5
0.016813943242999046 -0.0035395216850092758 0.18776162592608744 144 238 144 0.5
0.016824556904248347 -0.0035416106251957933 0.18777296524206213 144 238 144 0.5
0.0168351880117731 -0.0035437563304599232 0.1877842812393755 144 238 144 0.5
0.016845842925950146 -0.003545957437697548 0.18779558033905072 144 238 144 0.5
0.016856528007156354 -0.003548212583804552 0.1878068689621108 144 238 144 0.5
0.01686724961576855 -0.003550520405676814 0.18781815352957887 144 238 144 0.5
0.01687801411216358 -0.0035528795402102126 0.18782944046247796 144 238 144 0.5
0.016888827856718292 -0.003555288624300635 0.18784073618183122 144 238 144 0.5
0.016899697209809533 -0.003557746294843959 0.18785204710866166 144 238 144 0.5
0.01691062853181414 -0.003560251188736063 0.18786337966399233 144 238 144 0.5
0.016921628183108967 -0.003562801942872835 0.1878747402688464 144 238 144 0.5
0.016932702524070857 -0.0035653971941501518 0.18788613534424686 144 238 144 0.5
0.016943857915076656 -0.0035680355794638964 0.1878975713112169 144 238 144 0.5
0.016955100716503194 -0.003570715735709947 0.18790905459077945 144 238 144 0.5
0.016966437288727338 -0.0035734362997841885 0.18792059160395772 144 238 144 0.5
0.016977873992125917 -0.003576195908582501 0.1879321887717747 144 238 144 0.5
0.01698941718707578 -0.003578993199000764 0.1879438525152535 144 238 144 0.5
0.01700107323395378 -0.0035818268079348607 0.18795558925541717 144 238 144 0.5
0.01701284849313675 -0.0035846953722806735 0.18796740541328885 144 238 144 0.5
0.01702474932500154 -0.0035875975289340794 0.18797930740989158 144 238 144 0.5
0.017036782089924995 -0.0035905319147909644 0.18799130166624842 144 238 144 0.5
0.01704895314828396 -0.003593497166747208 0.18800339460338245 144 238 144 0.5
0.017061268860455274 -0.0035964919216986894 0.18801559264231685 144 238 144 0.5
0.017073735586815797 -0.0035995148165412936 0.18802790220407456 144 238 144 0.5
0.017086359687742355 -0.0036025644881708986 0.18804032970967866 144 238 144 0.5
0.017099147523611802 -0.0036056395734833865 0.18805288158015235 144 238 144 0.5
0.017112105454800988 -0.003608738709374641 0.1880655642365186 144 238 144 0.5
0.017125239841686752 -0.0036118605327405398 0.18807838409980052 144 238 144 0.5
0.017138557044645935 -0.0036150036804769655 0.1880913475910212 144 238 144 0.5
0.017152063424055394 -0.0036181667894798005 0.1881044611312037 144 238 144 0.5
0.01716576534029196 -0.0036213484966449265 0.18811773114137112 144 238 144 0.5
0.01717966915373248 -0.0036245474388682205 0.1881311640425465 144 238 144 0.5
0.01719378122475381 -0.003627762253045568 0.18814476625575294 144 238 144 0.5
0.017208107913732788 -0.0036309915760728497 0.18815854420201353 144 238 144 0.5
0.01722265558104625 -0.0036342340448459447 0.18817250430235136 144 238 144 0.5
0.017237430587071056 -0.003637488296260737 0.18818665297778944 144 238 144 0.5
0.017252439292184046 -0.0036407529672131066 0.18820099664935092 144 238 144 0.5
0.017267688056762064 -0.003644026694598935 0.18821554173805885 144 238 144 0.5
0.017283183241181943 -0.003647308115314101 0.18823029466493627 144 238 144 0.5
0.017298931205820545 -0.00365059586625449 0.18824526185100632 144 238 144 0.5
0.01731493831105471 -0.0036538885843159816 0.18826044971729208 144 238 144 0.5
0.017331210917261274 -0.0036571849063944547 0.18827586468481655 144 238 144 0.5
0.017347755384817098 -0.0036604834693857937 0.18829151317460285 144 238 144 0.5
0.017364578074099017 -0.0036637829101858798 0.18830740160767412 144 238 144 0.5
0.017381685345483868 -0.0036670818656905912 0.18832353640505334 144 238 144 0.5
0.017399083559348518 -0.0036703789727958133 0.1883399239877637 144 238 144 0.5
0.01741677907606979 -0.0036736728683974245 0.18835657077682813 144 238 144 0.5
0.017434778256024533 -0.0036769621893913054 0.1883734831932698 144 238 144 0.5
0.017453087459589605 -0.0036802455726733406 0.18839066765811177 144 238 144 0.5
0.017471713047141842 -0.0036835216551394092 0.18840813059237713 144 238 144 0.5
0.017490661379058074 -0.0036867890736853905 0.18842587841708894 144 238 144 0.5
0.017509938815715182 -0.003690046465207171 0.18844391755327028 144 238 144 0.5
0.01752955171748998 -0.003693292466600628 0.18846225442194428 144 238 144 0.5
0.017549506444759312 -0.003696525714761642 0.1884808954441339 144 238 144 0.5
0.01756980935790005 -0.003699744846586098 0.18849984704086234 144 238 144 0.5
0.01759046681728902 -0.003702948498969875 0.1885191156331526 144 238 144 0.5
0.017611485183303053 -0.0037061353088088528 0.1885387076420278 144 238 144 0.5
0.017632870816319028 -0.0037093039129989167 0.188558629488511 144 238 144 0.5
0.017654630076713765 -0.0037124529484359446 0.18857888759362526 144 238 144 0.5
0.01767676932486412 -0.0037155810520158195 0.1885994883783937 144 238 144 0.5
0.01769929492114692 -0.0037186868606344198 0.18862043826383934 144 238 144 0.5
0.017722213225939032 -0.003721769011187631 0.18864174367098535 144 238 144 0.5
0.0177455305996173 -0.0037248261405713324 0.1886634110208547 144 238 144 0.5
0.01776925340255854 -0.0037278568856814022 0.18868544673447052 144 238 144 0.5
0.01779338799513963 -0.003730859883413727 0.18870785723285588 144 238 144 0.5
0.017817940737737414 -0.003733833770664187 0.18873064893703392 144 238 144 0.5
0.0178429179907287 -0.0037367771843286584 0.1887538282680276 144 238 144 0.5
0.017868326114490376 -0.003739688761303029 0.18877740164686008 144 238 144 0.5
0.01789417146939927 -0.0037425671384831763 0.1888013754945544 144 238 144 0.5
0.017920460415832208 -0.0037454109527649817 0.18882575623213366 144 238 144 0.5
0.017947199314166072 -0.003748218841044329 0.18885055028062092 144 238 144 0.5
0.017974394524777684 -0.0037509894402170973 0.1888757640610393 144 238 144 0.5
0.01800205240804387 -0.003753721387179166 0.18890140399441177 144 238 144 0.5
0.01803017932434153 -0.0037564133188264215 0.18892747650176156 144 238 144 0.5
0.018058781634047463 -0.003759063872054741 0.18895398800411164 144 238 144 0.5
0.018087865697538515 -0.0037616716837600064 0.18898094492248516 144 238 144 0.5
0.018117437875191558 -0.003764235390838101 0.1890083536779051 144 238 144 0.5
0.01814750452738342 -0.0037667536301849037 0.1890362206913946 144 238 144 0.5
0.018178072014490933 -0.0037692250386962963 0.18906455238397676 144 238 144 0.5
0.018209146696890978 -0.003771648253268161 0.18909335517667464 144 238 144 0.5
0.01824073493496037 -0.003774021910796379 0.18912263549051128 144 238 144 0.5
0.01827284308907594 -0.0037763446481768287 0.18915239974650974 144 238 144 0.5
0.018305477519614585 -0.0037786151023053963 0.1891826543656932 144 238 144 0.5
0.01833864458695312 -0.0037808319100779606 0.1892134057690847 144 238 144 0.5
0.018372350651468385 -0.003782993708390402 0.1892446603777073 144 238 144 0.5
0.018406602073537205 -0.0037850991341386014 0.18927642461258398 144 238 144 0.5
0.01844140521353647 -0.003787146824218442 0.18930870489473797 144 238 144 0.5
0.018476766431843015 -0.003789135415525805 0.18934150764519236 144 238 144 0.5
0.01851269208883364 -0.0037910635449565685 0.18937483928497004 144 238 144 0.5
0.01854918854488525 -0.003792929849406618 0.18940870623509426 144 238 144 0.5
0.01858626185937811 -0.003794733002451034 0.18944311463421995 144 238 144 0.5
0.018623909939365167 -0.00379647267110102 0.18947806297321562 144 238 144 0.5
0.018662121791746082 -0.003798149606933394 0.18951354139361987 144 238 144 0.5
0.01870088597249745 -0.00379976461647409 0.18954953961395554 144 238 144 0.5
0.01874019103759584 -0.003801318506249039 0.18958604735274534 144 238 144 0.5
0.018780025543017928 -0.00380281208278418 0.1896230543285121 144 238 144 0.5
0.018820378044740283 -0.0038042461526054455 0.18966055025977865 144 238 144 0.5
0.018861237098739488 -0.003805621522238767 0.1896985248650677 144 238 144 0.5
0.018902591260992214 -0.003806938998210083 0.18973696786290212 144 238 144 0.5
0.018944429087475043 -0.0038081993870453263 0.18977586897180473 144 238 144 0.5
0.01898673913416454 -0.00380940349527043 0.18981521791029818 144 238 144 0.5
0.019029509957037387 -0.0038105521294113298 0.18985500439690542 144 238 144 0.5
0.019072730112070155 -0.0038116460959939603 0.1898952181501492 144 238 144 0.5
0.019116388155239427 -0.003812686201544254 0.18993584888855225 144 238 144 0.5
0.01916047264252187 -0.003813673252588147 0.18997688633063745 144 238 144 0.5
0.01920497212989407 -0.0038146080556515738 0.1900183201949276 144 238 144 0.5
0.01924987517333262 -0.003815491417260467 0.19006014019994538 144 238 144 0.5
0.019295170328814105 -0.003816324143940762 0.19010233606421367 144 238 144 0.5
0.01934084615231521 -0.003817107042218393 0.19014489750625532 144 238 144 0.5
0.01938689119981249 -0.003817840918619294 0.19018781424459305 144 238 144 0.5
0.01943329402728253 -0.0038185265796693998 0.19023107599774958 144 238 144 0.5
0.019480043190702005 -0.0038191648318946438 0.19027467248424784 144 238 144 0.5
0.019527127246047493 -0.0038197564818209626 0.19031859342261062 144 238 144 0.5
0.019574534749295564 -0.003820302335974288 0.19036282853136058 144 238 144 0.5
0.0196222542564229 -0.0038208032008805555 0.19040736752902068 144 238 144 0.5
0.01967027432340607 -0.0038212598830656987 0.19045220013411357 144 238 144 0.5
0.019718583506221653 -0.003821673189055653 0.19049731606516218 144 238 144 0.5
0.01976717036084632 -0.0038220439253763504 0.19054270504068924 144 238 144 0.5
0.019816023443256656 -0.003822372898553729 0.19058835677921754 144 238 144 0.5
0.01986513130942922 -0.0038226609151137203 0.19063426099926983 144 238 144 0.5
0.019914482515340705 -0.0038229087815822593 0.19068040741936898 144 238 144 0.5
0.019964065616967678 -0.0038231173044852803 0.1907267857580378 144 238 144 0.5
0.02001386917028671 -0.0038232872903487176 0.19077338573379898 144 238 144 0.5
0.020063881731274488 -0.0038234195456985057 0.19082019706517542 144 238 144 0.5
0.020114091855907578 -0.003823514877060579 0.19086720947068986 144 238 144 0.5
0.020164488100162557 -0.003823574090960872 0.1909144126688651 144 238 144 0.5
0.020215059020016093 -0.0038235979939253172 0.19096179637822394 144 238 144 0.5
0.02026579317144478 -0.003823587392479852 0.19100935031728922 144 238 144 0.5
0.02031667911042518 -0.0038235430931504075 0.19105706420458363 144 238 144 0.5
0.02036770539293397 -0.0038234659024629206 0.19110492775863008 144 238 144 0.5
0.02041886057494773 -0.0038233566269433245 0.19115293069795128 144 238 144 0.5
0.02047013321244306 -0.003823216073117554 0.1912010627410701 144 238 144 0.5
0.02052151186139654 -0.0038230450475115426 0.19124931360650926 144 238 144 0.5
0.02057298507778485 -0.003822844356651225 0.1912976730127916 144 238 144 0.5
0.020624541417584564 -0.003822614807062536 0.19134613067843995 144 238 144 0.5
0.02067616943677224 -0.0038223572052714086 0.19139467632197696 144 238 144 0.5
0.02072785769132458 -0.0038220723578037794 0.19144329966192555 144 238 144 0.5
0.020779594737218146 -0.0038217610711855803 0.19149199041680856 144 238 144 0.5
0.020831369130429506 -0.0038214241519427465 0.19154073830514862 144 238 144 0.5
0.02088316942693535 -0.0038210624066012137 0.19158953304546866 144 238 144 0.5
0.02093498418271225 -0.003820676641686914 0.19163836435629145 144 238 144 0.5
0.02098680195373677 -0.0038202676637257823 0.19168722195613971 144 238 144 0.5
0.021038611295985603 -0.0038198362792437545 0.19173609556353638 144 238 144 0.5
0.021090400765435308 -0.003819383294766763 0.1917849748970041 144 238 144 0.5
0.021142158918062467 -0.0038189095168207426 0.19183384967506575 144 238 144 0.5
0.021193874309843756 -0.003818415751931628 0.1918827096162441 144 238 144 0.5
0.021245535496755757 -0.003817902806625354 0.19193154443906196 144 238 144 0.5
0.02129713103477503 -0.003817371487427854 0.1919803438620421 144 238 144 0.5
0.021348649479878256 -0.003816822600865061 0.1920290976037073 144 238 144 0.5
0.021400079388042025 -0.0038162569534629133 0.19207779538258046 144 238 144 0.5
0.02145140931524289 -0.003815675351747342 0.1921264269171843 144 238 144 0.5
0.021502627817457536 -0.003815078602244282 0.19217498192604152 144 238 144 0.5
0.021553723450662546 -0.003814467511479668 0.19222345012767514 144 238 144 0.5
0.02160468477083452 -0.003813842885979434 0.1922718212406078 144 238 144 0.5
0.02165550033395003 -0.003813205532269515 0.19232008498336225 144 238 144 0.5
0.02170615869598576 -0.0038125562568758456 0.1923682310744614 144 238 144 0.5
0.021756648412918283 -0.0038118958663243573 0.192416249232428 144 238 144 0.5
0.021806958040724158 -0.003811225167140987 0.19246412917578476 144 238 144 0.5
0.021857076135380092 -0.0038105449658516694 0.19251186062305467 144 238 144 0.5
0.021906991252862638 -0.003809856068982337 0.19255943329276037 144 238 144 0.5
0.021956691949148375 -0.0038091592830589265 0.19260683690342473 144 238 144 0.5
0.022006166780213988 -0.00380845541460737 0.19265406117357053 144 238 144 0.5
0.022055404302036036 -0.0038077452701536013 0.19270109582172051 144 238 144 0.5
0.022104393070591102 -0.0038070296562235572 0.1927479305663975 144 238 144 0.5
0.022153121641855865 -0.00380630937934317 0.19279455512612428 144 238 144 0.5
0.022201578571806897 -0.0038055852460383752 0.19284095921942374 144 238 144 0.5
0.022249752416420774 -0.0038048580628351073 0.19288713256481851 144 238 144 0.5
0.02229763173167417 -0.003804128636259299 0.19293306488083156 144 238 144 0.5
0.022345205073543664 -0.003803397772836887 0.1929787458859856 144 238 144 0.5
0.022392460998005823 -0.0038026662790938024 0.19302416529880334 144 238 144 0.5
0.02243938806103733 -0.0038019349615559823 0.1930693128378077 144 238 144 0.5
0.02248597481861476 -0.0038012046267493597 0.19311417822152144 144 238 144 0.5
0.022532209826714687 -0.003800476081199871 0.19315875116846734 144 238 144 0.5
0.02257808164131379 -0.0037997501314334476 0.19320302139716825 144 238 144 0.5
0.02262357881838863 -0.0037990275839760246 0.19324697862614687 144 238 144 0.5
0.022668689913915796 -0.0037983092453535375 0.19329061257392602 144 238 144 0.5
0.02271340348387196 -0.0037975959220919193 0.19333391295902858 144 238 144 0.5
0.0227577080842337 -0.0037968884207171057 0.1933768694999773 144 238 144 0.5
0.02280159227097762 -0.0037961875477550296 0.1934194719152949 144 238 144 0.5
0.022845044600080303 -0.003795494109731626 0.19346170992350423 144 238 144 0.5
0.02288805362751841 -0.0037948089131728292 0.19350357324312809 144 238 144 0.5
0.022930607909268527 -0.003794132764604573 0.1935450515926893 144 238 144 0.5
0.022972696001307233 -0.0037934664705527935 0.19358613469071065 144 238 144 0.5
0.023014306459611188 -0.0037928108375434224 0.19362681225571488 144 238 144 0.5
0.023055427840156982 -0.003792166672102396 0.19366707400622482 144 238 144 0.5
0.023096048698921186 -0.003791534780755647 0.1937069096607632 144 238 144 0.5
0.023136157591880476 -0.0037909159700291115 0.193746308937853 144 238 144 0.5
0.02317574307501142 -0.0037903110464487227 0.19378526155601686 144 238 144 0.5
0.023214793704290602 -0.0037897208165404155 0.19382375723377754 144 238 144 0.5
0.02325329803569469 -0.0037891460868301227 0.19386178568965792 144 238 144 0.5
0.023291244625235304 -0.0037885876638416487 0.19389933664221165 144 238 144 0.5
0.02332862535092602 -0.0037880461519547077 0.19393640273314194 144 238 144 0.5
0.02336544451486229 -0.0037875213995426384 0.19397298753655123 144 238 144 0.5
0.023401709323049413 -0.0037870130782756226 0.19400909718179718 144 238 144 0.5
0.023437426981492714 -0.003786520859823846 0.19404473779823742 144 238 144 0.5
0.023472604696197587 -0.0037860444158574905 0.1940799155152298 144 238 144 0.5
0.023507249673169344 -0.0037855834180467386 0.19411463646213192 144 238 144 0.5
0.023541369118413317 -0.0037851375380617766 0.1941489067683016 144 238 144 0.5
0.023574970237934877 -0.0037847064475727845 0.19418273256309646 144 238 144 0.5
0.023608060237739356 -0.0037842898182499462 0.1942161199758742 144 238 144 0.5
0.023640646323832098 -0.003783887321763447 0.19424907513599268 144 238 144 0.5
0.023672735702218423 -0.003783498629783469 0.19428160417280946 144 238 144 0.5
0.023704335578903713 -0.0037831234139801954 0.19431371321568242 144 238 144 0.5
0.023735453159893293 -0.0037827613460238102 0.19434540839396908 144 238 144 0.5
0.023766095651192486 -0.003782412097584496 0.1943766958370273 144 238 144 0.5
0.023796270258806675 -0.0037820753403324365 0.19440758167421474 144 238 144 0.5
0.02382598418874118 -0.0037817507459378145 0.19443807203488908 144 238 144 0.5
0.02385524464700133 -0.003781437986070814 0.1944681730484081 144 238 144 0.5
0.0238840588395925 -0.0037811367324016173 0.19449789084412952 144 238 144 0.5
0.023912433972520016 -0.003780846656600409 0.19452723155141102 144 238 144 0.5
0.023940377251789203 -0.003780567430337373 0.19455620129961035 144 238 144 0.5
0.023967895883405445 -0.0037802987252826895 0.19458480621808516 144 238 144 0.5
0.023994997073374064 -0.003780040213106545 0.1946130524361932 144 238 144 0.5
0.024021688027700383 -0.003779791565479122 0.19464094608329222 144 238 144 0.5
0.024047975952389777 -0.0037795524540706034 0.19466849328873995 144 238 144 0.5
0.024073868053447578 -0.003779322550551172 0.194695700181894 144 238 144 0.5
0.024099371536879112 -0.0037791015265910125 0.19472257289211212 144 238 144 0.5
0.024124493608689748 -0.003778889053860306 0.1947491175487521 144 238 144 0.5
0.024149241474884824 -0.0037786848040292386 0.19477534028117163 144 238 144 0.5
0.024173622341469657 -0.003778488448767992 0.19480124721872838 144 238 144 0.5
0.02419764341444963 -0.00377829965974675 0.19482684449078005 144 238 144 0.5
0.024221311899830063 -0.0037781181086356955 0.19485213822668446 144 238 144 0.5
0.02424463500361628 -0.0037779434671050124 0.19487713455579922 144 238 144 0.5
0.024267619931813672 -0.0037777754068248834 0.19490183960748209 144 238 144 0.5
0.02429027389042755 -0.0037776135994654924 0.1949262595110908 144 238 144 0.5
0.024312604085463263 -0.0037774577166970226 0.19495040039598302 144 238 144 0.5
0.024334617722926142 -0.003777307430189657 0.19497426839151655 144 238 144 0.5
0.02435632200882155 -0.003777162411613579 0.194997869627049 144 238 144 0.5
0.024377724149154824 -0.0037770223326389725 0.19502121023193814 144 238 144 0.5
0.02439883134993129 -0.00377688686493602 0.19504429633554163 144 238 144 0.5
0.02441965081715632 -0.0037767556801749057 0.19506713406721726 144 238 144 0.5
0.024440189756835238 -0.003776628450025811 0.19508972955632276 144 238 144 0.5
0.02446045537497338 -0.003776504846158922 0.19511208893221577 144 238 144 0.5
0.024480454877576118 -0.00377638454024442 0.19513421832425407 144 238 144 0.5
0.024500195470648776 -0.0037762672039524897 0.19515612386179532 144 238 144 0.5
0.024519684360196685 -0.003776152508953314 0.1951778116741973 144 238 144 0.5
0.024538928752225214 -0.0037760401269170754 0.19519928789081764 144 238 144 0.5
0.024557935852739694 -0.0037759297295139574 0.19522055864101412 144 238 144 0.5
0.024576712867745452 -0.0037758209884141444 0.1952416300541444 144 238 144 0.5
0.024595267003247857 -0.0037757135752878187 0.1952625082595663 144 238 144 0.5
0.02461360546525225 -0.003775607161805164 0.19528319938663743 144 238 144 0.5
0.024631735459763944 -0.003775501419636364 0.19530370956471557 144 238 144 0.5
0.024649664192788318 -0.003775396020451601 0.19532404492315839 144 238 144 0.5
0.024667398870330697 -0.003775290635921059 0.19534421159132365 144 238 144 0.5
0.02468494669839642 -0.0037751849377149213 0.195364215698569 144 238 144 0.5
0.024702314882990847 -0.0037750785975033717 0.19538406337425218 144 238 144 0.5
0.024719510630119304 -0.0037749712869565924 0.19540376074773094 144 238 144 0.5
0.024736541145787147 -0.003774862677744767 0.195423313948363 144 238 144 0.5
0.02475341363599971 -0.0037747524415380805 0.19544272910550606 144 238 144 0.5
0.024770135306762336 -0.0037746402500067134 0.19546201234851776 144 238 144 0.5
0.024786713364080375 -0.003774525774820852 0.19548116980675595 144 238 144 0.5
0.024803155013959154 -0.0037744086876506763 0.19550020760957823 144 238 144 0.5
0.024819467462404043 -0.003774288660166373 0.1955191318863424 144 238 144 0.5
0.02483565791542037 -0.0037741653640381238 0.19553794876640612 144 238 144 0.5
0.024851733579013463 -0.0037740384709361117 0.19555666437912714 144 238 144 0.5
0.02486770165918869 -0.00377390765253052 0.1955752848538631 144 238 144 0.5
0.024883569361951387 -0.003773772580491533 0.19559381631997186 144 238 144 0.5
0.02489934389330688 -0.003773632926489334 0.195612264906811 144 238 144 0.5
0.024915032459260536 -0.0037734883621941043 0.19563063674373832 144 238 144 0.5
0.02493064226581769 -0.00377333855927603 0.19564893796011146 144 238 144 0.5
0.02494618051898367 -0.003773183189405293 0.1956671746852882 144 238 144 0.5
0.024961654424763842 -0.0037730219242520773 0.19568535304862625 144 238 144 0.5
0.02497707118916354 -0.0037728544354865647 0.19570347917948328 144 238 144 0.5
0.024992438018188092 -0.00377268039477894 0.195721559207217 144 238 144 0.5
0.02500776211784287 -0.0037724994737993855 0.19573959926118523 144 238 144 0.5
0.025023050694133193 -0.003772311344218086 0.19575760547074558 144 238 144 0.5
0.025038310953064406 -0.0037721156777052248 0.19577558396525582 144 238 144 0.5
0.025053550100641867 -0.003771912145930982 0.1957935408740736 144 238 144 0.5
0.025068775342870917 -0.0037717004205655444 0.1958114823265567 144 238 144 0.5
0.025083993885756876 -0.003771480173279094 0.1958294144520628 144 238 144 0.5
0.025099212935305114 -0.003771251075741815 0.19584734337994966 144 238 144 0.5
0.025114439697520963 -0.003771012799623889 0.19586527523957492 144 238 144 0.5
0.02512968137840977 -0.003770765016595501 0.19588321616029641 144 238 144 0.5
0.025144945183976856 -0.0037705073983268335 0.19590117227147175 144 238 144 0.5
0.025160238320227603 -0.0037702396164880705 0.19591914970245872 144 238 144 0.5
0.025175567993167322 -0.0037699613427493945 0.19593715458261496 144 238 144 0.5
0.025190941408801362 -0.0037696722487809897 0.19595519304129816 144 238 144 0.5
0.025206365773135085 -0.003769372006253038 0.19597327120786623 144 238 144 0.5
0.02522184829217381 -0.0037690602868357234 0.19599139521167663 144 238 144 0.5
0.025237396171922888 -0.003768736762199231 0.19600957118208728 144 238 144 0.5
0.025253016618387674 -0.0037684011040137414 0.19602780524845576 144 238 144 0.5
0.025268716837573493 -0.003768052983949439 0.19604610354013988 144 238 144 0.5
0.025284504035485694 -0.003767692073676508 0.1960644721864973 144 238 144 0.5
0.02530038541812963 -0.003767318044865131 0.19608291731688576 144 238 144 0.5
0.025316368191510636 -0.0037669305691854908 0.19610144506066296 144 238 144 0.5
0.02533245956163404 -0.0037665293183077714 0.1961200615471866 144 238 144 0.5
0.025348666734505212 -0.0037661139639021558 0.19613877290581444 144 238 144 0.5
0.025364996916129486 -0.0037656841776388264 0.19615758526590418 144 238 144 0.5
0.025381457312512186 -0.00376523963118797 0.19617650475681353 144 238 144 0.5
0.025398055129658682 -0.0037647799962197653 0.1961955375079002 144 238 144 0.5
0.02541479757357431 -0.0037643049444043984 0.1962146896485219 144 238 144 0.5
0.02543169149995229 -0.003763814176418578 0.19623396698470785 144 238 144 0.5
0.025448738048455096 -0.0037633078662374945 0.19625337004674676 144 238 144 0.5
0.02546593370257833 -0.003762786573376026 0.19627289506741244 144 238 144 0.5
0.025483274810276953 -0.0037622508685720814 0.19629253815437822 144 238 144 0.5
0.025500757719505916 -0.003761701322563567 0.19631229541531764 144 238 144 0.5
0.025518378778220205 -0.00376113850608839 0.19633216295790412 144 238 144 0.5
0.025536134334374773 -0.003760562989884459 0.1963521368898111 144 238 144 0.5
0.025554020735924558 -0.0037599753446896796 0.196372213318712 144 238 144 0.5
0.02557203433082456 -0.003759376141241962 0.19639238835228034 144 238 144 0.5
0.02559017146702972 -0.0037587659502792106 0.19641265809818947 144 238 144 0.5
0.025608428492494985 -0.0037581453425393355 0.19643301866411286 144 238 144 0.5
0.02562680175517535 -0.003757514888760242 0.19645346615772394 144 238 144 0.5
0.025645287603025754 -0.003756875159679839 0.19647399668669616 144 238 144 0.5
0.02566388238400115 -0.003756226726036033 0.19649460635870297 144 238 144 0.5
0.025682582446056527 -0.0037555701585667324 0.19651529128141781 144 238 144 0.5
0.025701384137146836 -0.0037549060280098437 0.19653604756251414 144 238 144 0.5
0.025720283805227017 -0.0037542349051032757 0.1965568713096654 144 238 144 0.5
0.025739277798252063 -0.003753557360584935 0.19657775863054497 144 238 144 0.5
0.025758362464176923 -0.0037528739651927286 0.19659870563282636 144 238 144 0.5
0.025777534150956547 -0.0037521852896645644 0.19661970842418297 144 238 144 0.5
0.02579678920654592 -0.00375149190473835 0.1966407631122883 144 238 144 0.5
0.025816123978899985 -0.0037507943811519932 0.1966618658048157 144 238 144 0.5
0.025835534815973702 -0.0037500932896434 0.19668301260943868 144 238 144 0.5
0.02585501806572205 -0.0037493892009504795 0.19670419963383068 144 238 144 0.5
0.025874570076099983 -0.0037486826858111376 0.19672542298566512 144 238 144 0.5
0.025894187195062437 -0.003747974314963284 0.1967466787726154 144 238 144 0.5
0.025913865770564423 -0.003747264659144825 0.1967679631023551 144 238 144 0.5
0.025933602150560862 -0.0037465542890936666 0.19678927208255745 144 238 144 0.5
0.025953392683006744 -0.0037458437755477185 0.1968106018208961 144 238 144 0.5
0.02597323371585699 -0.0037451336892448876 0.19683194842504437 144 238 144 0.5
0.02599312159706661 -0.00374442460092308 0.19685330800267575 144 238 144 0.5
0.02601305267459053 -0.003743717081320204 0.19687467666146366 144 238 144 0.5
0.026033023296383715 -0.0037430117011741683 0.19689605050908152 144 238 144 0.5
0.026053029810401154 -0.0037423090312228785 0.19691742565320283 144 238 144 0.5
0.026073068564597793 -0.0037416096422042433 0.196938798201501 144 238 144 0.5
0.02609313590692857 -0.003740914104856169 0.19696016426164945 144 238 144 0.5
0.026113228185348485 -0.0037402229899165646 0.19698151994132165 144 238 144 0.5
0.026133341747812483 -0.003739536868123336 0.19700286134819106 144 238 144 0.5
0.026153472942275505 -0.003738856310214392 0.19702418458993107 144 238 144 0.5
0.026173618116692547 -0.003738181886927639 0.19704548577421516 144 238 144 0.5
0.02619377361901856 -0.0037375141690009846 0.19706676100871676 144 238 144 0.5
0.026213935797208484 -0.003736853727172337 0.1970880064011093 144 238 144 0.5
0.02623410099921731 -0.0037362011321796034 0.19710921805906625 144 238 144 0.5
0.02625426557299999 -0.0037355569547606903 0.197130392090261 144 238 144 0.5
0.026274425866511467 -0.0037349217656535067 0.19715152460236707 144 238 144 0.5
0.026294578227706727 -0.0037342961355959587 0.1971726117030578 144 238 144 0.5
0.026314719004540726 -0.003733680635325954 0.19719364950000673 144 238 144 0.5
0.02633484454496841 -0.003733075835581401 0.19721463410088724 144 238 144 0.5
0.026354951196944764 -0.0037324823071002064 0.19723556161337283 144 238 144 0.5
0.02637503530842474 -0.0037319006206202776 0.19725642814513686 144 238 144 0.5
0.026395093227363293 -0.0037313313468795226 0.19727722980385282 144 238 144 0.5
0.026415121301715378 -0.0037307750566158483 0.19729796269719418 144 238 144 0.5
0.026435115879435984 -0.0037302323205671627 0.1973186229328343 144 238 144 0.5
0.02645507330848005 -0.0037297037094713723 0.19733920661844673 144 238 144 0.5
0.026474989936802532 -0.003729189794066386 0.19735970986170476 144 238 144 0.5
0.026494862112358415 -0.0037286911450901098 0.197380128770282 144 238 144 0.5
0.026514686183102657 -0.003728208333280452 0.1974004594518518 144 238 144 0.5
0.026534458496990192 -0.0037277419293753203 0.19742069801408763 144 238 144 0.5
0.02655417540197601 -0.003727292504112621 0.19744084056466285 144 238 144 0.5
0.026573833246015074 -0.0037268606282302636 0.19746088321125105 144 238 144 0.5
0.026593428377062314 -0.0037264468724661536 0.19748082206152556 144 238 144 0.5
0.026612957143072723 -0.0037260518075581976 0.1975006532231598 144 238 144 0.5
0.02663241589200126 -0.003725676004244307 0.19752037280382734 144 238 144 0.5
0.02665180097180285 -0.0037253200332623844 0.19753997691120148 144 238 144 0.5
0.026671108730432512 -0.003724984465350342 0.19755946165295574 144 238 144 0.5
0.02669033551584517 -0.0037246698712460826 0.19757882313676356 144 238 144 0.5
0.02670947767599578 -0.0037243768216875177 0.1975980574702984 144 238 144 0.5
0.026728531558839332 -0.0037241058874125524 0.19761716076123362 144 238 144 0.5
0.026747493512330772 -0.0037238576391590947 0.19763612911724276 144 238 144 0.5
0.02676635988442505 -0.0037236326476650533 0.1976549586459992 144 238 144 0.5
0.026785127023077154 -0.0037234314836683334 0.19767364545517635 144 238 144 0.5
0.026803791276242026 -0.003723254717906844 0.19769218565244775 144 238 144 0.5
0.026822348991874637 -0.003723102921118491 0.19771057534548678 144 238 144 0.5
0.02684079651792994 -0.0037229766640411847 0.19772881064196687 144 238 144 0.5
0.0268591302023629 -0.00372287651741283 0.1977468876495615 144 238 144 0.5
0.026877346393128478 -0.003722803051971336 0.19776480247594405 144 238 144 0.5
0.02689544143818164 -0.003722756838454609 0.19778255122878807 144 238 144 0.5
0.026913411685477343 -0.0037227384476005566 0.1978001300157669 144 238 144 0.5
0.02693125348297055 -0.003722748450147086 0.19781753494455404 144 238 144 0.5
0.026948963178616215 -0.0037227874168321057 0.19783476212282286 144 238 144 0.5
0.02696653712036932 -0.003722855918393523 0.1978518076582469 144 238 144 0.5
0.026983971656184814 -0.0037229545255692445 0.1978686676584995 144 238 144 0.5
0.027001263134017635 -0.0037230838090971784 0.19788533823125418 144 238 144 0.5
0.027018407901822788 -0.003723244339715232 0.1979018154841844 144 238 144 0.5
0.027035402307555217 -0.003723436688161312 0.1979180955249635 144 238 144 0.5
0.02705224269916986 -0.0037236614251733267 0.197934174461265 144 238 144 0.5
0.02706892542462172 -0.0037239191214891837 0.1979500484007623 144 238 144 0.5
0.027085446831865735 -0.0037242103478467904 0.19796571345112887 144 238 144 0.5
0.02710180326885686 -0.0037245356749840536 0.19798116572003818 144 238 144 0.5
0.02711799108355007 -0.003724895673638882 0.1979964013151636 144 238 144 0.5
0.027134006623900322 -0.0037252909145491808 0.19801141634417863 144 238 144 0.5
0.02714984623786258 -0.0037257219684528596 0.1980262069147567 144 238 144 0.5
0.027165506273391798 -0.0037261894060878244 0.1980407691345712 144 238 144 0.5
0.02718098307844295 -0.0037266937981919844 0.19805509911129562 144 238 144 0.5
0.027196273000970973 -0.0037272357155032454 0.19806919295260333 144 238 144 0.5
0.027211372388930857 -0.003727815728759516 0.19808304676616792 144 238 144 0.5
0.027226277590277563 -0.0037284344086987026 0.19809665665966272 144 238 144 0.5
0.02724098495296603 -0.0037290923260587137 0.19811001874076117 144 238 144 0.5
0.027255490824951226 -0.003729790051577456 0.19812312911713678 144 238 144 0.5
0.027269791554188128 -0.0037305281559928383 0.19813598389646297 144 238 144 0.5
0.02728388349373745 -0.003731307209322415 0.1981485791916334 144 238 144 0.5
0.02729776603861213 -0.0037321273524073763 0.19816091422570872 144 238 144 0.5
0.027311446759676606 -0.0037329875725920906 0.1981729965809419 144 238 144 0.5
0.027324934587262605 -0.003733886665419342 0.19818483522953867 144 238 144 0.5
0.02733823845170186 -0.003734823426431914 0.19819643914370486 144 238 144 0.5
0.02735136728332613 -0.003735796651172595 0.19820781729564618 144 238 144 0.5
0.027364330012467148 -0.0037368051351841683 0.19821897865756855 144 238 144 0.5
0.027377135569456635 -0.0037378476740094185 0.1982299322016777 144 238 144 0.5
0.027389792884626354 -0.0037389230631911328 0.19824068690017943 144 238 144 0.5
0.02740231088830803 -0.0037400300982720945 0.19825125172527944 144 238 144 0.5
0.027414698510833405 -0.0037411675747950892 0.1982616356491837 144 238 144 0.5
0.027426964682534225 -0.0037423342883029028 0.1982718476440979 144 238 144 0.5
0.02743911833374223 -0.003743529034338321 0.19828189668222784 144 238 144 0.5
0.02745116839478914 -0.003744750608444127 0.19829179173577927 144 238 144 0.5
0.02746312379600672 -0.0037459978061631077 0.19830154177695808 144 238 144 0.5
0.0274749934677267 -0.0037472694230380483 0.19831115577796998 144 238 144 0.5
0.02748678634028081 -0.003748564254611732 0.19832064271102087 144 238 144 0.5
0.0274985113440008 -0.003749881096426946 0.1983300115483164 144 238 144 0.5
0.027510177409218413 -0.003751218744026476 0.1983392712620625 144 238 144 0.5
0.02752179346626538 -0.0037525759929531058 0.19834843082446485 144 238 144 0.5
0.027533368445473435 -0.0037539516387496198 0.1983574992077293 144 238 144 0.5
0.02754491127717433 -0.0037553444769588052 0.19836648538406165 144 238 144 0.5
0.027556430891699804 -0.0037567533031234463 0.19837539832566767 144 238 144 0.5
0.02756793621938158 -0.0037581769127863277 0.19838424700475313 144 238 144 0.5
0.027579436190551424 -0.0037596141014902365 0.19839304039352393 144 238 144 0.5
0.02759093973554105 -0.0037610636647779565 0.19840178746418577 144 238 144 0.5
0.027602455784682206 -0.003762524398192271 0.19841049718894443 144 238 144 0.5
0.02761399326830664 -0.003763995097275969 0.19841917854000576 144 238 144 0.5
0.027625561116746092 -0.0037654745575718346 0.1984278404895755 144 238 144 0.5
0.02763716826033228 -0.0037669615746226503 0.19843649200985952 144 238 144 0.5
0.02764882362939696 -0.003768454943971204 0.1984451420730635 144 238 144 0.5
0.027660536154271876 -0.003769953461160281 0.19845379965139337 144 238 144 0.5
0.02767231476528875 -0.003771455921732665 0.19846247371705475 144 238 144 0.5
0.02768416839277935 -0.0037729611212311428 0.19847117324225363 144 238 144 0.5
0.027696105967075387 -0.0037744678551984985 0.19847990719919573 144 238 144 0.5
0.027708136418508608 -0.003775974919177517 0.19848868456008673 144 238 144 0.5
0.027720268677410762 -0.0037774811087109843 0.19849751429713258 144 238 144 0.5
0.027732511674113582 -0.0037789852193416858 0.198506405382539 144 238 144 0.5
0.027744874338948795 -0.0037804860466124053 0.19851536678851175 144 238 144 0.5
0.027757365602248174 -0.00378198238606593 0.19852440748725672 144 238 144 0.5
0.027769994394343436 -0.0037834730332450437 0.19853353645097963 144 238 144 0.5
0.027782769645566297 -0.0037849567836925305 0.19854276265188628 144 238 144 0.5
0.02779570028624854 -0.0037864324329511785 0.1985520950621825 144 238 144 0.5
0.02780879524672189 -0.003787898776563772 0.19856154265407408 144 238 144 0.5
0.027822063457318073 -0.0037893546100730945 0.1985711143997667 144 238 144 0.5
0.027835513848368833 -0.0037907987290219324 0.1985808192714663 144 238 144 0.5
0.027849155350205924 -0.0037922299289530714 0.19859066624137864 144 238 144 0.5
0.027862996893161074 -0.0037936470054092952 0.19860066428170953 144 238 144 0.5
0.027877047407566014 -0.0037950487539333906 0.19861082236466462 144 238 144 0.5
0.027891315823752504 -0.0037964339700681422 0.19862114946244985 144 238 144 0.5
0.027905811072052273 -0.003797801449356335 0.19863165454727097 144 238 144 0.5
0.027920542082797047 -0.0037991499873407542 0.1986423465913338 144 238 144 0.5
0.027935517786318594 -0.003800478379564186 0.19865323456684414 144 238 144 0.5
0.027950747112948638 -0.0038017854215694137 0.1986643274460077 144 238 144 0.5
0.027966238993018904 -0.003803069908899223 0.19867563420103035 144 238 144 0.5
0.02798200235686116 -0.003804330637096401 0.19868716380411786 144 238 144 0.5
0.027998046134807126 -0.003805566401703731 0.19869892522747595 144 238 144 0.5
0.02801437925718854 -0.0038067759982639985 0.1987109274433106 144 238 144 0.5
0.028031010654337163 -0.0038079582223199894 0.19872317942382745 144 238 144 0.5
0.02804794925658471 -0.0038091118694144883 0.1987356901412323 144 238 144 0.5
0.028065203994262926 -0.00381023573509028 0.19874846856773098 144 238 144 0.5
0.028082783797703566 -0.003811328614890151 0.19876152367552932 144 238 144 0.5
0.028100697597238353 -0.003812389304356886 0.19877486443683304 144 238 144 0.5
0.028118954323199028 -0.0038134165990332688 0.19878849982384797 144 238 144 0.5
0.028137562905917332 -0.003814409294462086 0.1988024388087799 144 238 144 0.5
0.028156532275725017 -0.0038153661861861222 0.19881669036383465 144 238 144 0.5
0.02817587136295381 -0.003816286069748164 0.19883126346121793 144 238 144 0.5
0.028195589097935438 -0.003817167740690995 0.1988461670731356 144 238 144 0.5
0.028215694411001673 -0.0038180099945574007 0.19886141017179348 144 238 144 0.5
0.02823619623248423 -0.0038188116268901666 0.19887700172939732 144 238 144 0.5
0.028257103492714843 -0.0038195714332320773 0.19889295071815288 144 238 144 0.5
0.028278425122025275 -0.00382028820912592 0.198909266110266 144 238 144 0.5
0.028300170050747253 -0.003820960750114477 0.1989259568779425 144 238 144 0.5
0.02832234720921251 -0.0038215878517405353 0.19894303199338814 144 238 144 0.5
0.028344965527752796 -0.0038221683095468802 0.1989605004288087 144 238 144 0.5
