ply
format ascii 1.0
element vertex 1668
property float x
property float y
property float z
end_header
-0.350435 0.011657 1.141773
-0.114107 -0.105885 0.758330
-0.056729 -0.097963 0.790058
0.087490 -0.132068 0.617356
0.080496 -0.149181 0.646921
0.011887 -0.118273 0.668661
-0.239970 0.095770 0.773323
0.172826 0.115344 0.542081
0.199652 0.069739 0.666144
0.051828 0.069347 0.640405
0.050819 0.040851 0.642819
0.064663 -0.043006 0.641852
0.218234 0.049806 0.703928
-0.144854 -0.008321 0.615085
-0.213103 0.123650 0.797555
-0.234364 0.160883 0.910979
0.265162 0.040241 0.665810
0.207521 -0.009753 0.678160
0.069441 0.015840 0.607994
0.072240 -0.054119 0.623994
0.075752 -0.018357 0.615290
0.066775 -0.081895 0.630752
0.059050 -0.016518 0.642550
0.041783 0.037813 0.657345
0.042225 0.171000 0.681846
0.026165 0.066926 0.691836
0.023260 -0.121397 0.684083
0.021438 -0.002520 0.658803
0.024992 0.046088 0.696612
0.010846 0.056331 0.669438
0.006921 -0.023468 0.652275
-0.041186 -0.061214 0.708465
-0.066935 0.002374 0.767618
-0.134929 -0.156471 0.656501
-0.185212 0.121375 0.741774
-0.178559 0.123818 0.731815
-0.214175 0.139110 0.748536
0.024272 0.053020 0.663369
-0.191844 0.127197 0.718436
0.229048 0.055551 0.679633
0.226466 0.047009 0.732796
-0.505423 0.083004 0.347875
-0.571617 0.161358 0.422842
-0.501977 0.075816 0.962539
-1.767354 -0.040066 1.191192
-0.529920 0.129185 0.293786
-0.593884 0.159081 0.411465
-1.697939 0.065581 1.005980
-0.732588 0.110647 0.471014
-0.621471 0.183978 0.459831
-0.558720 0.162428 0.432906
-0.774722 0.244181 0.600910
-0.613110 0.312620 0.770023
-0.531064 0.101790 0.465045
-0.532112 0.071708 0.307898
-1.592272 0.054211 0.948404
-0.643371 0.168333 0.482850
-0.549592 0.119226 0.472244
-1.565042 0.019749 0.858352
-0.262611 0.128448 0.399730
-0.275633 -0.115758 0.771301
-0.253830 0.131469 0.768070
-0.237023 0.327761 0.927017
-0.476672 0.098686 0.424894
-1.424133 -0.183698 0.852405
-1.632717 -0.148156 1.064285
-0.511653 0.154161 0.423972
-0.544803 0.102301 0.454154
-0.758592 0.105928 1.196843
-0.524210 0.098073 0.334221
-0.222164 0.285857 0.654526
-0.910168 0.468970 1.120502
-0.703956 0.037006 0.437094
-0.570467 0.178152 1.054159
-1.543939 -0.148434 1.022517
-1.427162 -0.063389 0.936421
-1.076955 0.124474 0.626282
-1.334008 -0.225399 0.888677
-0.144233 0.070628 0.615079
-0.446903 0.300455 0.823008
-0.732598 0.119899 0.522594
-0.712596 0.105908 0.450462
-0.777065 0.209214 1.091608
-0.626448 0.184489 0.464188
-0.593694 0.093977 1.147210
-0.929662 0.140826 1.375735
-0.393447 0.032092 0.541400
-0.446948 -0.030766 0.607069
-1.812224 0.022442 1.271684
-1.894041 0.025749 1.320640
-0.778225 -0.097449 0.813388
-0.603988 0.087038 1.123483
-0.567107 0.079243 1.061907
-0.266929 0.150537 0.415624
-0.609497 0.130181 0.364754
-0.405941 0.263782 0.778986
-0.481584 0.249165 0.905573
-0.335610 0.225128 0.650102
0.028717 -0.029620 0.099372
-1.209390 -0.134575 0.828875
-1.259013 -0.134636 0.862859
-0.325796 -0.083050 0.479502
-0.616131 0.081103 1.017799
-1.123178 -0.202968 0.750938
-0.670832 0.097478 0.435680
-0.684934 0.106407 1.209731
-0.424511 0.065315 0.467595
-1.899084 0.068115 1.215924
0.064376 -0.029326 0.666922
-0.200066 0.007647 0.798613
-1.515138 -0.244196 0.968925
-0.388766 -0.098170 0.463669
-0.507114 0.125015 0.347494
-0.409819 0.190871 0.859258
-0.369641 0.239696 0.683573
-0.297972 0.163920 0.429427
-1.099297 -0.213063 0.881098
-0.916442 -0.122062 0.859239
-0.990445 -0.275837 0.881715
-0.609814 0.071842 0.773513
-0.555505 0.083023 0.360890
-0.424794 0.063629 0.466772
-0.473851 0.357888 0.864884
-0.466203 -0.096880 0.529269
-0.447992 0.396411 0.957473
-0.699187 0.157294 0.576515
0.002000 0.004562 0.784585
-0.130923 0.006422 0.581466
-0.881925 0.122085 1.242845
-0.464623 0.326976 0.775317
-0.335690 0.184400 0.466884
-0.325414 0.158155 0.654137
-1.767339 0.032371 1.195711
-1.646284 -0.042371 1.120147
-0.245379 0.069164 0.746708
-0.642889 0.228761 0.605609
-0.192535 0.046933 0.594366
-0.583680 0.082579 0.611290
-0.328293 -0.091568 0.483603
-0.733178 0.151424 0.560594
-0.320499 0.231583 0.593071
-0.426751 0.276135 0.816241
-1.754045 -0.048946 1.042683
-1.795188 -0.146105 1.302714
-0.475723 -0.098605 0.536559
-0.862214 0.301700 0.745164
-0.423620 0.113541 0.854533
-0.605700 0.336929 1.293739
-1.113608 -0.199703 0.746532
-0.566784 0.180855 0.486826
0.113951 0.022381 0.690170
-0.190926 0.065201 0.591117
-0.235913 0.388530 0.948549
-0.325631 0.118663 0.652209
-0.467993 0.220916 0.991837
-0.192233 0.038002 0.455648
-0.227273 0.272692 0.754210
-0.182757 0.183308 0.572970
-1.765328 -0.084631 1.250844
-0.658210 0.135242 1.801618
-1.139976 -0.067964 0.777074
-2.403839 0.128437 1.288677
-1.104771 -0.227001 0.837873
-0.219538 0.203200 0.592768
-1.905072 -0.041445 1.278582
-0.266662 0.086924 0.324261
-0.534635 0.354991 0.990797
-0.835793 0.129491 1.172962
-0.179365 0.145682 0.504166
-0.195347 0.104559 0.696465
-0.187281 0.073535 0.755109
-0.770332 0.162282 0.578412
-0.499663 0.243407 0.936662
-0.460653 0.127802 0.893578
-0.554269 0.521758 1.439845
-0.397701 0.216118 0.543326
-1.230276 -0.211641 0.811056
-0.618340 0.171155 0.452677
-0.658899 -0.083062 1.665516
-0.859089 0.142163 0.599309
-0.274623 0.140105 0.702077
-0.324509 -0.090326 0.401282
-0.328015 -0.092199 0.483322
-0.416050 0.239387 1.111453
-0.199820 0.011667 0.784475
-0.387515 -0.134296 0.471431
0.003062 -0.021264 0.130741
0.021149 -0.101866 0.651596
-0.162213 0.105452 0.616378
-0.765054 0.102414 1.118180
-0.203137 0.083642 0.487421
-0.849132 0.176803 0.634839
-0.347592 0.013528 0.409325
-0.387418 0.179502 0.816837
-0.340632 0.096504 0.677677
-0.424639 0.101609 0.824059
-1.796307 0.032826 1.215271
-0.394376 -0.099075 0.468372
-0.121913 -0.086268 0.311019
-0.156762 0.002349 0.660850
-0.349266 0.185157 0.858442
-0.598416 0.394779 1.022739
-0.021891 -0.047791 0.182290
-0.671251 0.097167 1.103215
-0.356873 -0.096100 0.515106
-0.752361 0.404603 1.043979
-0.466027 0.347366 0.850067
-0.020502 0.001506 0.215656
0.001027 -0.021012 0.134851
-0.184248 0.139425 0.573868
-0.224248 0.030875 0.498489
-0.175691 0.043581 0.505931
-0.214383 -0.003288 0.632070
-0.402053 0.211567 0.889217
-0.266697 0.201424 0.767435
-0.002344 -0.017966 0.140614
-0.210279 0.071961 0.636703
-0.349112 0.178658 0.784044
0.094928 -0.090260 0.665715
-0.265224 0.083195 0.878577
-0.031624 -0.003921 0.202540
-0.633930 0.417630 2.113907
0.018358 -0.029988 0.098628
-0.128323 0.016449 0.584643
-0.526110 0.288383 0.721455
-0.821361 0.436641 1.028742
-0.273520 0.254434 0.704373
0.087060 0.061740 0.630755
0.048939 0.052714 0.667162
0.019372 -0.030310 0.715709
-0.377953 -0.133350 0.619243
-0.492361 0.073801 0.448076
-0.246847 0.268117 0.641187
-0.508075 0.240810 1.037763
-0.183474 -0.041475 0.521652
-0.102691 0.008621 0.746448
-0.004990 -0.092228 0.844213
-0.552955 0.142498 0.460127
-0.248717 0.093567 0.865375
0.002752 -0.021441 0.131332
0.079573 0.021065 0.579148
0.023741 -0.032734 0.705636
0.021483 -0.090090 0.667784
0.137634 0.026449 0.640963
0.045422 0.035586 0.571762
0.060108 0.050944 0.585853
0.152001 0.020046 0.686544
0.125710 -0.036566 0.618150
-0.342305 0.230569 0.666587
-0.114450 0.047646 0.486337
-0.323153 -0.136569 0.875547
-0.237322 0.105616 0.810647
0.104761 0.029716 0.620139
-0.067286 0.007707 0.767726
0.003614 0.165460 0.671995
-0.107057 -0.012911 0.751096
-0.211150 0.037613 0.581501
-0.189599 -0.004000 0.749423
-0.013914 -0.019239 0.167013
0.021742 -0.033714 0.091590
-0.220086 0.092723 0.740256
-0.472011 0.128655 0.910592
-0.000394 -0.020471 0.137586
-0.178326 0.252406 0.745293
-0.267891 0.434162 1.043099
-0.622236 0.428609 1.182599
-0.670435 0.466655 1.265996
0.008797 -0.026592 0.117600
0.182491 -0.017729 0.603841
0.019700 0.004179 0.743191
-0.090392 0.110628 0.716516
-0.060773 0.143789 0.501056
0.002404 -0.020849 0.132159
-0.277658 0.294979 0.839492
-0.051835 0.146104 0.662894
-0.151784 0.009139 0.634883
0.023589 -0.041654 0.639427
-0.325913 0.238180 0.812970
-0.259535 0.094916 0.824121
-0.274452 0.158623 0.865461
0.081478 0.033318 0.598944
0.023420 -0.062098 0.686846
-0.106070 0.030217 0.515796
-0.297368 0.313528 0.840770
0.144506 -0.008462 0.762326
0.159346 0.003393 0.814804
0.121501 -0.040374 0.696971
-0.027511 0.124730 0.629887
-0.281624 0.016114 0.894717
0.023274 -0.059019 0.714443
-0.047545 -0.037005 0.250799
-0.059087 -0.097701 0.797240
0.012552 0.062052 0.665249
0.075934 -0.004407 0.607741
-0.089171 -0.003582 0.863246
-0.442423 0.056976 0.841724
-0.179524 0.042746 0.512752
-0.239082 0.070684 0.770118
-0.906730 0.120699 1.097332
-0.183331 0.029433 0.435425
-0.369185 0.252854 0.627639
-0.454970 0.121277 0.875534
-0.008332 0.163692 0.665593
0.158449 -0.039354 0.552986
0.147281 0.125719 0.817108
0.334218 0.097455 1.614501
-0.161608 0.106704 0.573154
0.041866 0.036609 0.650833
0.123178 -0.019718 0.707173
0.025551 -0.008537 0.705659
0.024319 -0.031817 0.086284
0.023191 -0.033813 0.700041
0.023913 -0.034622 0.716102
0.128003 0.099952 0.733646
0.191079 0.189310 0.665627
-0.196242 0.238818 0.675977
-0.244646 -0.010130 0.822826
-0.118518 0.039481 0.483225
0.073493 0.052454 0.608908
0.068390 -0.067878 0.596073
0.006785 -0.025136 0.122804
-0.000209 -0.021569 0.135827
0.005846 -0.020272 0.124551
0.062373 0.006176 0.607425
0.097511 0.022695 0.613195
0.100629 0.157558 0.703255
0.105638 0.056196 0.647035
-0.034220 0.188548 0.656339
-0.031486 -0.045389 0.202998
0.080421 0.032679 0.595029
0.067947 0.017630 0.615014
-0.206328 -0.039214 0.585541
0.144673 0.028047 0.666409
0.101891 0.099609 0.726216
-0.276972 0.026889 0.601525
-0.297487 0.223850 0.743817
-0.554264 0.406415 1.286757
-0.268248 0.249652 0.673523
0.094934 -0.077818 0.659477
-0.141571 0.076698 0.575385
-0.341663 0.045661 1.242074
-0.269076 0.112678 0.849291
-0.115770 -0.043852 0.811301
-0.009974 -0.013271 0.158273
-0.181228 0.258837 0.757863
0.120538 -0.093154 0.675512
0.127218 -0.084353 0.689288
-0.175865 0.129503 0.573367
0.150835 -0.002006 0.751231
0.084626 -0.107228 0.651307
0.123287 -0.040266 0.573048
-0.234319 0.078813 0.770689
0.058689 0.047213 0.627698
0.040390 0.169727 0.693288
-0.098919 0.011116 0.731938
-0.083693 -0.003309 0.956321
-0.571278 -0.062182 1.345672
0.022112 -0.090003 0.663229
0.124848 -0.064789 0.697882
-0.000051 -0.088593 0.850237
0.133865 -0.107035 0.692652
0.068384 0.004136 0.658213
0.041536 0.067009 0.675324
0.123288 -0.041040 0.586173
0.178034 -0.008218 0.578361
0.084022 0.034026 0.607948
-0.308920 0.158190 1.180136
-0.054326 0.090568 0.726685
-0.101419 0.017991 0.737414
0.025151 0.048719 0.719185
-0.149205 0.015752 0.632265
-0.124106 0.045292 0.570690
0.019062 -0.030707 0.790404
0.090831 0.190333 0.670736
0.096593 -0.061367 0.689489
-0.121668 -0.042544 0.836586
0.104305 0.042115 0.622017
-0.083746 -0.003165 0.838727
0.100463 0.150823 0.679622
0.132690 0.087052 0.696792
0.157226 0.188959 0.686660
0.114960 0.003580 0.372230
0.040651 0.155481 0.684932
-0.062455 0.091627 0.767182
-0.054936 0.067245 0.723239
0.111028 0.059635 0.728556
0.038548 0.114446 0.690653
0.077824 -0.003926 0.626009
0.120887 -0.034748 0.704741
0.142914 -0.042341 0.713021
-0.161511 0.098844 0.661258
-0.158220 0.067803 0.651730
-0.095956 0.039095 0.712718
0.083865 0.037012 0.619196
-0.083242 0.173224 0.638716
-0.184378 0.117825 0.739663
-0.086949 0.161380 0.650661
-0.174461 0.089240 0.598245
-0.044850 -0.026178 0.808048
-0.057477 0.061769 0.727773
0.114293 0.001885 0.681273
-0.053897 -0.059208 0.833797
-0.074565 0.057430 0.820928
0.025105 -0.049304 0.710580
0.072045 -0.052391 0.607183
-0.149840 -0.032152 0.624789
0.102362 0.062155 0.703905
0.034894 0.130005 0.689412
0.190136 -0.018836 0.979010
-0.117925 0.021999 0.813009
-0.102001 0.203664 0.781126
-0.019557 0.192969 0.638133
-0.024945 0.207248 0.754767
0.064333 -0.017500 0.609666
0.063782 -0.021060 0.774192
-0.154633 0.066961 0.641234
-0.145261 -0.011955 0.621373
0.063109 -0.029707 0.680081
-0.154310 0.086775 0.638087
-0.157547 -0.077855 0.648578
0.001923 0.196817 0.656033
0.021605 0.093849 0.680709
0.118951 -0.026987 0.406033
0.056891 -0.002916 0.623879
0.082807 0.030009 0.604508
0.033895 0.126292 0.686279
0.122254 0.020527 0.699839
0.067064 0.070386 0.659713
-0.108554 -0.073173 0.737184
0.138077 0.128162 0.691884
0.064945 0.067270 0.643978
0.100804 0.047033 0.613231
-0.022349 0.182769 0.685252
-0.154884 0.060541 0.637898
-0.204965 0.133303 0.739396
-0.158832 0.026148 0.651069
-0.188500 0.157326 0.570805
0.099835 0.058485 0.678264
0.121376 0.097423 0.638662
-0.081277 0.169882 0.632901
0.058662 -0.002645 0.599221
-0.165161 0.109578 0.577461
-0.055088 -0.058207 0.835030
0.139069 -0.063731 0.812973
0.099155 0.086678 0.699756
0.041837 0.132456 0.694238
-0.154190 0.009316 0.639612
-0.098443 0.081648 0.759851
0.082507 0.024190 0.606267
0.012987 0.046492 0.695781
-0.125912 0.051243 0.571448
0.028778 0.145154 0.686586
0.024414 0.188133 0.640335
-0.139318 0.005832 0.601570
-0.064233 0.038887 0.753762
-0.149438 0.074947 0.631266
0.136413 0.071216 0.737669
0.027310 -0.035468 0.687843
-0.030330 0.199448 0.651765
-0.004555 0.109119 0.727348
-0.055291 0.033177 0.710383
0.073369 0.052169 0.597086
0.043432 -0.005755 0.199008
-0.161505 0.099557 0.662289
-0.154163 0.088508 0.637204
0.033931 -0.008343 0.597085
-0.176835 0.129958 0.576271
-0.241468 0.101962 0.788625
0.005797 0.125431 0.694352
-0.140826 0.072131 0.611709
0.042323 0.130310 0.688050
-0.112459 -0.038813 0.764406
0.040035 0.116703 0.697758
-0.117843 0.090815 0.569071
0.086296 -0.010685 0.684867
-0.111187 -0.013587 0.785415
-0.140776 0.132805 0.609140
-0.152408 0.107624 0.626200
-0.098299 0.011400 0.723008
-0.195107 0.122712 0.680247
-0.201299 0.103368 0.700665
0.061940 0.041190 0.649939
0.028400 0.064373 0.689529
0.112650 0.158148 0.685803
-0.121816 -0.039505 0.832064
0.079636 0.016914 0.609436
0.025347 -0.043779 0.676215
-0.065793 0.005062 0.756088
0.066409 0.061826 0.621349
-0.123435 0.064532 0.567094
0.122843 -0.012912 0.728396
0.124840 -0.066511 0.728879
0.094542 -0.049554 0.672532
-0.015305 -0.009743 0.941050
0.024547 -0.028232 0.699361
-0.027826 0.184341 0.688540
0.075850 -0.004269 0.609975
0.056065 -0.005474 0.478531
-0.018245 0.104083 0.694048
0.022496 -0.030165 0.739714
0.063338 -0.013633 0.375820
-0.020503 0.220176 0.792133
-0.146684 -0.039049 0.625034
-0.499719 -0.100311 1.416800
0.113870 0.167281 0.691300
-0.174274 0.162975 0.562314
0.080797 0.033645 0.603522
0.010341 0.004604 0.682567
-0.109766 -0.039518 0.754855
-0.081627 0.111569 0.691634
0.066595 -0.045644 0.641946
-0.188213 0.094913 0.621934
-0.177368 0.095066 0.601875
0.110047 0.018249 0.636196
-0.064111 0.076041 0.436078
-0.081109 0.140949 0.671775
-0.046514 0.157518 0.604877
-0.013101 0.174444 0.663804
-0.012684 0.173624 0.661894
0.096049 -0.061747 0.681521
0.018770 0.137478 0.675735
-0.165383 0.046727 0.673096
-0.164921 -0.039703 0.658275
0.076621 0.033215 0.521872
-0.243582 0.089316 0.788004
-0.028499 0.157384 0.759340
-0.074746 0.183560 0.634471
0.012962 0.180450 0.665028
-0.141160 0.150012 0.534465
-0.691440 -0.256870 1.847288
-0.107340 -0.070351 0.735680
0.095688 -0.028612 0.726458
-0.054691 0.144448 0.693074
-0.099481 0.196094 0.643542
0.096586 -0.005510 0.648230
-0.142977 0.004764 0.611832
-0.120201 0.118114 0.561909
-0.144021 -0.010955 0.614121
-0.175321 0.089620 0.599230
-0.034330 0.182505 0.678701
0.013984 0.042687 0.681948
-0.093500 0.047865 0.703898
0.040074 0.026036 0.770537
0.100299 0.023681 0.640583
0.059256 0.059229 0.603962
-0.121435 0.090952 0.567040
-0.006233 -0.090952 0.851991
-0.055673 -0.060643 0.849080
0.012091 0.047547 0.704247
-0.189440 0.095353 0.625653
0.136254 -0.032578 0.466292
-0.129461 -0.008588 0.850293
0.086474 0.107695 0.690997
0.034296 0.184511 0.635087
-0.213163 0.082993 1.110457
0.035380 0.043726 0.748036
0.004298 0.161871 0.658492
-0.152804 0.100985 0.556812
-0.164123 0.088169 0.671235
-0.253314 0.100165 0.762368
-0.140837 -0.016070 0.604314
-0.013240 0.163076 0.630091
0.117667 0.002035 0.716001
-0.087246 0.109197 0.684273
-0.227525 0.084325 0.755782
0.043108 0.142065 0.755466
0.093775 -0.088793 0.528801
0.293983 0.026934 0.691062
0.192851 -0.017229 0.646596
0.084344 0.093764 0.670389
0.097714 0.015655 0.629086
0.459975 -0.033333 0.597098
0.480430 -0.047774 0.613151
0.460913 -0.034734 0.622691
-0.008883 0.166997 0.673922
0.081749 0.024980 0.615991
0.053476 0.026125 0.616976
0.063367 -0.000819 0.614924
0.080795 0.125990 0.685943
0.077877 0.014275 0.590362
-0.081863 0.111125 0.692296
0.099867 0.173180 0.703788
0.075889 -0.020180 0.622553
0.106591 0.016204 0.583145
0.345065 0.007520 0.673596
0.073913 0.174878 0.681679
0.449874 0.013081 0.648595
0.468366 -0.044691 0.607881
0.131213 0.020402 0.715958
0.101950 0.030606 0.639724
0.344402 0.004790 0.661622
0.457351 0.017398 0.653482
0.459221 0.003544 0.610550
0.107046 0.114699 0.696699
-0.163953 -0.109036 0.666227
-0.144641 0.021647 0.632840
0.228104 0.002542 0.804040
-0.103798 -0.016595 0.738358
0.239220 -0.014098 0.607612
0.305684 -0.056898 0.663118
0.115897 -0.002471 0.519759
0.115748 -0.002365 0.519200
0.134989 0.094081 0.735591
0.023377 -0.028581 0.722675
0.063219 0.045126 0.621700
0.465239 -0.034818 0.624370
0.109412 0.117129 0.706156
0.007977 -0.009506 0.670578
0.061531 0.036101 0.602500
0.015575 -0.022286 0.647370
0.104061 0.140240 0.697881
0.482174 -0.054719 0.628087
-0.073871 0.050455 0.760973
-0.088449 -0.028061 0.792531
0.117326 -0.014735 0.525616
0.059719 0.153169 0.679241
0.553349 0.016302 0.642600
0.459629 -0.031062 0.651648
0.221325 -0.027226 0.682915
0.452631 -0.039408 0.651186
0.453906 0.021442 0.646397
0.460659 -0.025305 0.648927
0.337201 -0.043868 0.685764
0.322874 -0.029482 0.705154
0.081540 0.023452 0.615617
0.463567 0.003000 0.614403
0.444097 0.008168 0.615948
0.471599 0.001781 0.613328
0.463889 0.005051 0.624783
0.465149 0.005239 0.625491
0.321960 0.023563 0.664207
0.318633 -0.019071 0.696387
0.315246 0.028062 0.684117
0.310747 0.034254 0.706271
-0.004286 0.000847 0.795803
0.067330 0.054496 0.608944
0.077063 0.068258 0.653034
-0.140156 0.098270 0.587181
0.015496 0.046640 0.673919
0.079313 0.024008 0.596461
0.089120 0.120058 0.674745
0.169981 -0.042631 0.570835
0.093718 -0.029548 0.661090
0.147876 -0.037898 0.773238
0.103609 0.159259 0.690950
0.072915 -0.082440 0.716702
0.330010 0.000056 0.654301
0.075426 -0.018829 0.614319
0.083696 0.042991 0.614004
0.461389 -0.029384 0.638634
-0.234320 0.081679 0.764331
0.012851 0.187309 0.666023
0.105636 0.128205 0.704448
0.115002 -0.002860 0.513158
0.043534 0.142256 0.688102
0.123167 0.038910 0.644876
0.205042 -0.013818 0.606008
0.109253 0.125855 0.714662
0.123331 -0.023626 0.704080
0.322025 -0.029224 0.704426
0.321772 -0.022915 0.702826
0.287403 -0.022472 0.702225
0.066916 0.054774 0.615944
0.060494 0.027027 0.613884
0.050234 0.050109 0.638713
0.214281 -0.014982 0.658787
0.304647 -0.017612 0.725791
0.025224 0.041278 0.708791
0.113166 -0.010988 0.484402
0.294562 0.029180 0.702721
0.154511 0.137549 0.870769
0.119382 -0.007497 0.539891
0.146786 -0.049572 0.868045
0.022476 -0.000250 0.731445
0.066894 0.061183 0.615629
0.074817 -0.026440 0.623048
0.022945 -0.036889 0.739417
0.061295 0.027146 0.619748
0.055856 0.018685 0.634813
0.095893 -0.061286 0.685906
0.104940 0.046069 0.641122
0.025804 0.070022 0.705124
0.120189 -0.016457 0.542017
0.462026 0.003189 0.637851
-0.050946 0.114253 0.730154
0.058688 0.043561 0.605072
0.117836 -0.014145 0.528778
0.053370 0.005644 0.620733
0.121259 -0.023757 0.692581
0.053455 0.201026 0.669365
0.294712 0.026861 0.709556
0.288304 -0.038543 0.718099
0.328630 0.027162 0.664865
0.044275 0.031566 0.640102
0.082788 0.024304 0.606025
0.084342 0.041004 0.603338
0.126775 -0.036589 0.748947
0.077154 -0.004743 0.620588
0.071501 0.036134 0.618312
0.466391 0.007766 0.639070
0.120526 -0.033844 0.542147
0.047720 0.146574 0.691405
0.137425 0.071842 0.743069
0.351559 0.011325 0.652708
0.261154 -0.029383 0.725406
0.348377 0.026140 0.651057
0.132110 0.149007 0.719596
0.063234 0.035676 0.597605
0.322089 0.105015 0.573449
0.465215 -0.046299 0.625535
0.192365 -0.038015 0.623004
0.280020 -0.027881 0.719406
0.334463 0.024273 0.674086
0.292126 -0.023764 0.696460
0.299958 -0.039036 0.736200
0.116355 -0.009102 0.490098
0.127397 -0.027317 0.593845
0.117192 -0.014324 0.524709
0.122634 -0.025075 0.569093
0.350043 0.017745 0.651769
0.463827 0.012401 0.635675
0.233999 0.046987 0.664834
0.110935 0.128949 0.649095
0.122771 -0.051417 0.681306
0.471341 -0.001520 0.612291
0.296364 -0.018624 0.696197
0.283332 -0.037584 0.708337
0.335487 -0.038705 0.696240
0.014526 0.064908 0.665401
0.124485 0.086811 0.676583
0.213982 -0.008518 0.653884
0.080010 0.004285 0.601281
0.081483 0.014951 0.602483
0.072767 0.044304 0.616521
0.061140 -0.032958 0.737125
0.084990 0.060206 0.612666
0.083773 0.052148 0.614021
0.022472 -0.030477 0.739587
-0.085936 0.105904 0.691869
0.155798 0.165497 0.686894
0.124251 -0.027735 0.560542
0.508040 -0.059370 0.656079
0.075554 -0.029198 0.654566
0.063188 0.039714 0.647464
-0.065035 0.160983 0.659787
0.127205 -0.041552 0.566816
0.122707 -0.025961 0.561918
0.042947 0.065664 0.671087
0.134782 0.122632 0.698329
0.117841 -0.023651 0.532431
0.062704 0.043174 0.607441
0.023541 -0.055277 0.741110
0.122051 -0.013038 0.525200
0.060868 0.060148 0.607819
0.066668 0.052748 0.600060
-0.064961 0.008534 0.770838
0.268649 -0.017408 0.696061
0.067071 -0.045902 0.650996
0.391888 0.015063 0.645231
0.462077 -0.036312 0.654290
0.466570 0.003908 0.640324
0.337863 0.033391 0.650374
0.070632 -0.048014 0.659901
0.112439 0.035196 0.656229
0.323140 -0.025875 0.703303
0.339797 -0.057094 0.676787
0.113467 -0.009449 0.475398
-0.081547 -0.026665 0.767244
0.205965 -0.025741 0.643420
0.071006 0.025409 0.608511
0.054766 0.013742 0.551614
0.109644 0.149685 0.704612
0.066717 -0.003668 0.632417
0.074372 -0.017625 0.603448
0.079453 -0.004757 0.618338
0.316948 0.028022 0.686013
0.478122 0.005159 0.611226
0.072092 0.036214 0.619959
-0.069151 0.010114 0.778329
0.462431 -0.062495 0.667005
0.082845 -0.004766 0.423447
0.288251 -0.022227 0.702120
0.280986 -0.015947 0.706777
0.060007 0.017470 0.620613
0.280872 -0.020203 0.696179
-0.130574 -0.007724 0.856132
0.038519 0.166994 0.686223
0.167037 0.198791 0.732148
0.452036 -0.043476 0.587109
0.059798 0.052994 0.665555
0.140850 -0.040911 0.702212
0.339320 -0.058302 0.672544
0.468640 -0.048069 0.626276
0.547136 0.016066 0.640407
0.042348 0.042208 0.672728
0.021752 -0.021582 0.771914
0.338593 0.009658 0.680951
0.140013 0.141821 0.690768
0.039593 0.165515 0.680067
0.067223 0.054055 0.608344
0.118382 -0.013885 0.531859
0.023876 0.025054 0.726799
0.467807 0.113281 0.596025
0.120539 -0.033967 0.542179
0.023374 0.090310 0.686683
0.056835 -0.040356 0.608028
0.090962 0.158497 0.659324
0.132966 0.163717 0.687443
0.024325 -0.019139 0.726348
0.128808 0.093698 0.728845
0.002152 0.073096 1.504115
0.111826 0.026657 0.673346
0.092650 0.004661 0.444739
0.102332 0.031249 0.594674
0.110167 0.106555 0.677637
0.125615 -0.032303 0.605522
0.125763 -0.011244 0.527445
0.294734 0.026667 0.706924
0.117964 0.006502 0.679435
0.120803 -0.005017 0.734062
0.116772 0.081869 0.542254
0.118618 0.083923 0.555896
0.122202 -0.010349 0.511274
0.342280 0.002781 0.679261
0.471616 0.017689 0.630136
0.061526 -0.001490 0.739877
0.113870 0.108218 0.715015
0.071095 0.034983 0.602779
0.073205 0.120220 0.686561
-0.068737 0.160167 0.649485
0.107101 0.162567 0.693720
0.115463 -0.004985 0.534353
0.025542 0.069414 0.704509
0.122260 -0.038712 0.540976
-0.088989 0.106490 0.700102
0.062626 0.152031 0.690475
-0.089200 0.075708 0.694488
0.076938 0.004493 0.596797
0.448170 0.017494 0.648059
0.332808 -0.038408 0.693110
0.122385 -0.013216 0.649917
0.317750 -0.018102 0.695101
0.112468 -0.007591 0.501273
0.410815 0.006253 0.661011
0.093286 0.041658 0.598545
0.230735 -0.003965 0.689352
0.287547 -0.006779 0.697463
0.297685 -0.007866 0.712506
0.114340 -0.017899 0.483728
0.122271 -0.010377 0.514149
0.075629 -0.027903 0.629079
0.022215 0.095122 0.672596
0.471371 0.117546 0.621124
0.458237 -0.029862 0.643562
0.471260 0.004429 0.610467
0.115990 0.035967 0.671639
0.120398 -0.016764 0.529158
0.316365 -0.025133 0.718564
0.103063 0.042318 0.632370
0.102982 0.113904 0.740375
0.223808 0.038440 0.647448
0.096141 0.002734 0.624836
0.160862 0.008283 0.512684
0.025193 0.064839 0.716779
0.131359 0.156810 0.671079
0.195263 0.044844 0.596196
-0.063682 0.155921 0.647571
-0.102719 -0.015460 0.733714
-0.052116 0.114040 0.724313
0.113862 0.028457 0.659328
0.121237 -0.005117 0.706592
-0.093862 0.123499 0.744139
0.054531 0.006771 0.621457
-0.081568 0.017769 0.677748
0.094526 0.003480 0.611319
0.172146 -0.041990 0.574861
0.332831 0.024344 0.672985
0.306744 -0.019295 0.702786
0.107027 0.010589 0.582470
0.082861 0.052634 0.621611
0.293177 -0.019976 0.663170
0.295754 0.035102 0.701420
0.121668 -0.016993 0.535235
0.096801 0.133099 0.655283
0.102465 0.133127 0.670260
0.256828 -0.022059 0.697617
0.125446 -0.026076 0.584571
0.477736 -0.009051 2.494314
0.122966 0.094183 0.677749
0.062019 0.025642 0.608356
0.474461 0.067706 0.619053
0.350720 0.036648 0.644594
0.106522 0.035643 0.633187
0.236172 0.041673 0.663717
0.325684 -0.023557 0.707173
0.316537 -0.024373 0.717052
0.286502 0.023689 0.679071
0.136428 -0.039277 0.672799
0.020447 -0.056775 0.762817
0.314233 0.028092 0.683215
0.111336 0.026436 0.654430
0.318222 -0.019850 0.698503
0.146411 0.017233 0.508079
0.024332 0.011589 0.737786
0.122526 -0.029613 0.591425
0.117783 0.074545 0.622453
0.343921 0.002617 0.680404
0.346981 0.024228 0.643220
0.040384 0.065298 0.675904
0.077897 0.003681 0.606609
0.062170 0.001558 0.523588
0.006806 0.162196 0.663261
0.286040 -0.036415 0.707907
0.110261 0.143381 0.684060
0.265971 -0.015243 0.676435
0.348379 0.011039 0.649856
0.379369 0.108573 0.594495
0.089672 0.131986 0.708668
0.103459 0.120467 0.679102
0.115543 0.157682 0.683640
0.292709 0.026612 0.705578
0.139549 0.129945 0.702900
0.337359 0.007982 0.682517
0.305109 -0.019311 0.698420
0.234424 -0.021379 0.705675
0.114767 -0.002654 0.513141
0.124200 -0.012392 0.525075
0.140366 0.131099 0.708273
0.126552 -0.029166 0.570520
0.343008 0.008731 0.679900
0.022052 -0.005663 0.743120
0.023094 0.012670 0.734384
0.233086 -0.007068 0.696134
0.300104 -0.018432 0.693385
0.131544 0.051275 0.684224
0.142369 0.067666 0.765802
0.346952 0.033077 0.645105
0.470257 -0.003994 0.616034
0.460505 0.085953 0.626071
0.102176 0.030041 0.586074
0.125515 -0.035758 0.729103
0.122740 0.100279 0.711068
0.479770 -0.003422 0.590217
0.435519 0.010578 0.672241
0.214088 -0.013395 0.623730
0.294699 0.035527 0.699822
0.228311 -0.035183 0.702890
0.435288 -0.002086 0.680001
0.255775 -0.028212 0.686227
0.047306 0.048246 0.679100
0.060411 0.058442 0.602841
0.041440 0.064097 0.669477
0.115144 -0.042072 0.593867
0.468387 -0.048921 0.631911
0.476418 0.008191 0.640295
0.329410 0.032998 0.642390
0.469477 0.066151 0.616934
0.127034 -0.037050 0.710179
0.104840 0.077728 0.653481
0.328169 -0.013216 0.681904
0.334428 -0.014263 0.688981
0.324498 0.047382 0.720536
0.329745 0.023933 0.671030
0.351462 0.038194 0.642785
0.306199 0.033647 0.699042
0.232896 -0.015872 0.702400
0.240956 -0.014549 0.662899
0.107024 0.038078 0.661640
0.098579 0.114299 0.699455
0.237317 -0.006701 0.700404
0.224062 -0.011987 0.679321
0.081457 0.042389 0.610868
0.305486 0.040468 0.696788
0.326636 -0.026740 0.707457
0.468790 0.003942 0.627051
0.472928 0.010658 0.640097
0.323269 0.035623 0.656853
0.105396 -0.000352 0.436392
0.119737 -0.008288 0.540481
0.226958 -0.036900 0.700796
0.099240 0.033841 0.617007
0.086782 0.106153 0.688043
0.087533 0.113635 0.656386
0.127724 0.106197 0.746328
0.098620 0.114625 0.699610
0.276296 -0.016144 0.671768
0.101457 0.043972 0.630669
0.426506 -0.000481 0.670605
0.478725 -0.003693 0.589985
0.469716 0.000925 0.613480
0.434009 0.009953 0.672991
0.304018 -0.022962 0.700216
0.337507 -0.045091 0.669113
0.319332 0.026805 0.670205
0.336782 -0.056072 0.671319
0.340702 0.115235 0.588964
0.120198 -0.011816 0.507964
0.347795 0.008945 0.664856
0.286196 -0.036169 0.713835
0.336154 -0.018562 0.690487
0.301257 0.026246 0.703487
0.282163 -0.020726 0.697807
0.127043 -0.026108 0.576542
0.325588 0.005915 0.664604
0.082643 0.051461 0.614677
0.118016 0.033248 0.705466
0.309174 -0.025109 0.708420
0.109792 0.015291 0.633057
0.093021 0.126093 0.729814
0.289092 -0.021577 0.702430
0.111739 0.040622 0.649619
0.140937 0.159835 0.681585
0.122352 -0.025990 0.550684
0.022473 -0.021083 0.749462
0.023292 0.012120 0.734308
0.064691 0.026488 0.541563
0.020264 -0.020478 0.763010
0.040967 0.064770 0.674161
0.040956 0.073851 0.661515
0.057000 0.028317 0.624768
0.337481 -0.014645 0.688730
0.463909 -0.037766 0.624254
0.379595 0.108237 0.594068
0.121221 -0.007211 0.709796
0.471346 -0.052418 0.627580
0.126289 -0.021625 0.702596
0.022489 -0.019736 0.745841
0.097626 0.139218 0.635580
0.330410 -0.054879 0.663255
0.118484 -0.012375 0.511276
0.311060 0.043634 0.701211
0.210165 -0.031938 0.659366
0.348872 0.124223 0.602893
0.323883 0.033209 0.657550
0.315147 -0.019829 0.694077
0.345057 -0.000183 0.658979
0.336456 -0.056088 0.671772
0.344407 0.006764 0.672852
0.351652 0.033612 0.641501
0.329334 0.032985 0.641929
0.341005 0.010694 0.673844
0.345874 -0.001177 0.659239
0.343668 0.028499 0.678796
0.213183 0.036478 0.622070
0.478755 -0.052161 0.627474
0.156189 0.015767 0.454434
0.104875 0.035900 0.615857
0.105935 0.031816 0.631757
0.089390 0.134889 0.702155
0.466041 0.023211 0.632707
0.029260 0.010330 0.670676
0.122974 -0.038514 0.537344
0.135195 0.102945 0.715266
0.169585 0.156213 0.977883
0.302743 -0.020817 0.700225
0.346621 0.036386 0.640272
0.122368 -0.011336 0.513868
0.294869 -0.024530 0.698444
0.329380 -0.021295 0.728731
0.343847 0.003546 0.661190
0.321928 0.046193 0.717449
0.334727 0.105891 0.565018
0.088884 0.101447 0.675370
0.482342 -0.029219 0.601379
0.302369 -0.021175 0.698688
0.135402 0.126489 0.658148
0.094592 -0.021798 0.705441
0.138549 0.098073 0.739363
0.063063 0.001467 0.529631
0.344656 0.004812 0.672329
0.084919 0.042597 0.611986
0.334348 -0.014435 0.686527
0.182583 -0.046235 0.604314
0.342652 0.001425 0.670611
0.218395 0.026033 0.645368
0.076898 0.003359 0.568766
0.468927 -0.001565 0.631778
0.488034 0.049218 0.596294
0.311331 0.043230 0.702812
0.270468 -0.015165 0.674238
0.310505 0.034173 0.705712
0.218595 -0.010835 0.667035
0.098558 -0.003634 0.679152
0.318086 -0.029341 0.702339
0.154928 0.016949 0.499353
0.128749 -0.036762 0.739261
0.337534 -0.046230 0.686530
0.467122 0.122534 0.615737
0.368312 0.007766 0.629967
0.137647 0.147485 0.682429
0.304041 0.025942 0.706341
0.264552 -0.014823 0.653879
0.301254 -0.021722 0.696242
0.299891 -0.021079 0.694745
0.463915 -0.024005 0.635289
0.467596 0.012746 0.637562
0.477481 -0.000837 0.591652
0.352933 0.037198 0.641107
0.318322 -0.041790 0.678926
0.275328 0.037524 0.674505
0.454579 0.015708 0.648995
0.467399 -0.051002 0.626694
0.462609 0.000214 0.627204
0.281114 -0.017922 0.693409
0.460110 0.019183 0.625326
0.431497 0.112448 0.595462
0.191535 0.029318 0.576962
0.417949 0.099845 0.569927
0.461708 0.110693 0.601467
0.468845 0.110087 0.602850
0.470214 0.066035 0.617201
0.463502 0.004319 0.623632
0.114266 0.000518 0.474881
0.395845 0.013861 0.648437
0.411826 0.004639 0.661620
0.343448 0.110596 0.569984
0.454865 -0.039934 0.652599
0.360850 0.129693 0.615586
0.347072 0.035804 0.639848
0.465075 0.016978 0.634376
0.452583 0.020815 0.645352
0.457107 -0.029489 0.635382
0.342411 0.004297 0.670466
0.464712 -0.046021 0.625216
0.464626 -0.009330 0.613381
0.106462 0.002483 0.437813
0.106229 -0.000458 0.440260
0.470783 0.023343 0.633316
0.466645 0.005504 0.626165
0.512582 0.052299 0.608064
0.544742 0.012388 0.644317
0.454588 -0.039858 0.652698
0.462924 0.019148 0.626725
0.458584 -0.029562 0.644121
0.399725 0.006169 0.653855
0.332902 0.025062 0.670033
0.317482 0.024418 0.687221
0.336336 0.020506 0.677912
0.305766 0.014815 0.701555
0.433889 0.007918 0.679862
0.281712 -0.020519 0.698344
0.467929 0.002287 0.612182
0.465458 -0.005820 0.613880
0.449337 0.016456 0.645967
0.451960 0.022428 0.644433
0.348908 -0.001092 0.662929
0.483935 -0.056833 0.627972
0.302794 0.025667 0.704319
0.342347 -0.052902 0.674478
0.479961 0.112641 0.609581
0.455115 0.016217 0.648918
0.344942 0.005824 0.670413
0.342450 0.005673 0.669797
0.352504 0.034496 0.641978
0.473571 0.067454 0.618757
0.323361 0.000295 0.646311
0.511238 -0.060005 0.658607
0.312747 -0.017160 0.688730
0.343465 0.029104 0.680740
0.463888 -0.045654 0.625073
0.337943 -0.044647 0.667360
0.463039 -0.037718 0.624184
0.452077 0.023932 0.647785
0.472154 -0.047896 0.632699
0.463663 -0.025767 0.650864
0.463143 -0.043231 0.608014
0.456190 0.023579 0.646342
0.008521 -0.035165 0.200112
0.046785 0.046439 0.657789
0.096042 -0.050398 0.678658
-0.058952 0.016942 0.412146
0.097753 -0.006293 0.655441
0.003534 -0.024193 0.196776
0.019434 -0.078296 0.730992
0.211089 0.044437 0.685041
0.101066 -0.002267 0.660074
0.033101 -0.018664 0.235499
0.086398 -0.125806 0.708143
-0.073677 0.029048 0.238248
0.076937 0.003729 0.590356
-0.139200 0.099896 0.614301
0.019962 -0.106270 0.818121
0.075971 0.072665 0.680215
0.090349 0.046265 0.649901
0.155182 0.170322 0.705635
0.026335 0.082666 0.690957
0.112110 0.160891 0.693361
0.141325 0.163008 0.691553
0.001407 -0.071751 0.537980
0.117504 0.018974 0.634977
-0.081930 0.034974 0.634455
0.111288 0.016704 0.669195
0.051569 0.023486 0.620137
0.095821 -0.118520 0.538451
-0.220471 0.093423 0.626736
0.211277 0.168191 0.619437
0.102464 0.108606 0.694650
0.105737 0.039540 0.654678
0.160519 -0.132046 0.654309
-0.105390 -0.099379 0.483216
-0.126107 0.185934 0.583543
0.017937 0.141940 0.687781
-0.072399 0.019997 0.796923
0.116075 0.170277 0.702536
0.077637 0.038920 0.651615
0.098242 0.024255 0.622510
0.103013 0.049379 0.626964
-0.145017 0.117666 0.648654
-0.091004 0.108103 0.709100
0.188227 0.020299 0.638114
-0.033726 0.187103 0.652189
0.059245 0.023846 0.572861
0.057316 0.037590 0.600491
0.100596 0.035083 0.627171
0.064192 -0.052655 0.688931
0.007911 -0.018976 0.648024
0.046494 -0.006031 0.686209
0.023211 0.018288 0.624488
0.100888 -0.083458 0.721303
-0.374445 0.190822 1.216531
-0.212806 0.116215 0.694549
-0.203347 0.053818 0.650963
0.114461 -0.022131 0.671532
0.093419 -0.048289 0.665464
0.146123 0.035840 0.686667
0.197930 0.000860 0.695834
0.079965 0.016025 0.605721
0.052263 -0.009288 0.676262
-0.074165 -0.008820 0.207388
-0.054235 -0.023116 0.154466
-0.014339 0.195654 0.647457
0.064444 0.030674 0.661997
0.048536 0.043963 0.614839
0.072547 0.044815 0.620807
-0.043357 0.178887 0.665601
-0.099217 0.205703 0.669229
0.066916 0.039096 0.640219
0.061261 0.040980 0.648885
0.063847 -0.018184 0.607264
-0.121710 0.122513 0.556776
-0.111782 0.188729 0.564364
0.198406 -0.045773 0.679649
0.041016 0.038343 0.668601
0.073703 0.062493 0.672118
0.066168 -0.057282 0.670047
0.015237 -0.089059 0.692102
-0.209252 0.231114 0.768071
0.060407 0.202281 0.615254
0.078899 0.000093 0.619595
0.070963 0.039587 0.622168
0.069212 0.057725 0.604829
0.104404 0.056563 0.698422
-0.101539 -0.047779 0.729089
-0.109192 -0.102022 0.741004
-0.194861 0.118567 0.671417
0.016689 0.012471 0.499325
0.022653 0.092592 0.670057
0.194299 -0.012252 0.504770
0.157738 -0.132529 0.644319
0.053864 0.199790 0.674307
0.055240 -0.016403 0.677980
0.221914 0.045954 0.718576
0.053121 0.068403 0.650354
0.137881 -0.053821 0.784093
0.084047 -0.144573 0.679553
0.083487 -0.120716 0.680877
-0.061754 0.004010 0.718931
-0.068365 0.159542 0.649276
-0.334160 0.375068 1.248635
-0.065785 -0.153207 0.695372
0.102603 0.003295 0.670528
0.125489 -0.054113 0.707785
-0.211296 0.102649 0.738667
0.055635 0.200304 0.631269
-0.157364 0.079485 0.450441
-0.213847 0.081657 0.737311
0.079527 0.015319 0.603100
0.099851 0.054325 0.653593
0.079490 0.065070 0.639186
0.092122 -0.076540 0.655545
-0.130267 0.098114 0.587726
-0.228368 0.185222 0.668903
-0.184696 0.150890 0.520059
0.040474 0.071935 0.652437
0.151980 -0.036763 0.800392
0.013490 -0.120899 0.725637
0.008255 0.189100 0.635836
0.043312 -0.065715 0.782382
0.174028 -0.002157 0.918912
0.120396 0.004808 0.707843
-0.143774 0.063084 0.412786
-0.165716 0.085547 0.537413
0.046699 0.042190 0.618836
-0.139104 0.121245 0.408421
0.089196 -0.104282 0.640299
0.146780 0.026353 0.696683
0.150576 0.020664 0.474561
0.086567 -0.101082 0.609573
-0.225549 0.086653 0.730457
0.195504 0.024503 0.630865
0.097167 -0.006604 0.642974
0.020752 -0.064970 0.752280
0.146316 -0.090922 0.817723
0.104247 0.125955 0.701649
-0.099607 -0.026488 0.718580
-0.045482 -0.066445 0.789140
0.084016 0.186877 0.689800
-0.004380 0.194620 0.665869
0.105040 0.127669 0.704765
-0.015849 0.135044 0.671617
-0.082503 0.142808 0.674108
0.100388 0.034548 0.616631
-0.120717 -0.035162 0.339934
-0.087109 0.197476 0.629762
0.003858 -0.074865 0.607437
0.209892 0.169698 0.618077
0.148445 0.149107 0.562709
0.018928 0.200901 0.617764
-0.194323 -0.121603 0.526236
0.105433 -0.024099 0.645908
0.083015 0.019825 0.633763
0.097977 0.017019 0.625186
0.054517 0.068834 0.657196
0.078834 -0.095575 0.788776
0.100064 -0.101651 0.544102
0.139595 0.037860 0.673080
-0.131928 0.052119 0.587163
0.204946 0.041814 0.665001
-0.045409 0.017858 0.328923
0.060077 0.054372 0.592617
0.048921 -0.009718 0.683290
0.117499 -0.022002 0.684354
0.092225 -0.019814 0.623300
-0.265893 0.182832 0.949255
0.013107 -0.117253 0.705595
0.046739 -0.141777 0.858368
0.109509 -0.148351 0.625796
-0.211012 0.109302 0.589254
-0.192740 0.140591 0.552712
0.008596 -0.146422 0.642370
0.114496 -0.105347 0.649625
-0.223689 0.003809 0.624962
-0.113935 -0.105539 0.756519
0.082488 0.035408 0.610421
0.008545 -0.009654 0.676356
0.022505 0.021874 0.675867
0.131526 -0.102046 0.760272
0.096324 0.044468 0.705612
-0.273703 -0.028982 0.786060
-0.050735 0.113085 0.726779
-0.187838 0.116643 0.651920
0.134586 -0.111309 0.725335
-0.311061 0.245515 0.853422
-0.159974 0.086507 0.596441
0.096410 0.168673 0.691926
0.050651 0.035488 0.638054
0.054172 0.059905 0.640698
0.035346 -0.008986 0.611082
0.205440 0.163273 0.601996
0.051296 0.034917 0.638282
-0.068452 0.159952 0.649651
-0.100610 0.011323 0.705692
0.050293 0.042936 0.655452
0.115902 -0.123050 0.669938
0.245202 -0.011221 0.636556
0.024965 0.045336 0.714899
0.096275 0.166292 0.684116
0.059472 0.029568 0.671616
0.059605 0.005663 0.610505
0.115083 -0.139930 0.638279
0.183071 0.143057 0.555312
0.041688 0.156360 0.685049
-0.308533 0.005802 0.866554
0.101667 0.154312 0.699958
0.073469 -0.044446 0.627936
0.023076 -0.013098 0.734509
0.059079 -0.027833 0.660140
0.225066 0.046953 0.728778
-0.157937 0.085343 0.457645
0.095693 0.003269 0.627152
-0.190097 -0.020994 0.547516
-0.182055 0.068362 0.629328
0.421443 0.010780 0.661940
0.466880 -0.011120 0.615981
0.462978 -0.025177 0.648527
-0.359505 0.106593 1.018777
0.080635 0.055158 0.636640
0.045642 -0.088228 0.664376
0.087329 0.060263 0.691922
-0.281176 0.054914 0.791830
0.162204 -0.136896 0.664615
0.067102 -0.065942 0.712205
0.099417 -0.093862 0.714181
0.201125 -0.006616 0.665588
0.049142 0.044526 0.627859
0.026210 0.066514 0.693394
-0.306866 0.140493 0.793673
0.045558 0.013429 0.685464
-0.200617 0.104392 0.781872
-0.167332 0.182760 0.569770
0.121232 -0.069722 0.660890
0.066270 -0.024341 0.670346
0.073200 0.022618 0.668791
0.218612 -0.015894 0.721908
-0.184803 0.124632 0.690418
0.032415 -0.060329 0.687418
0.215261 0.048112 0.650485
0.066437 -0.082702 0.648803
0.011464 -0.132573 0.679075
-0.239317 0.161721 0.845468
0.031472 -0.055969 0.636391
0.218507 0.033701 0.669249
0.067063 -0.063643 0.693543
-0.079144 0.016850 0.555266
-0.129412 -0.048382 0.544713
-0.138920 0.098901 0.455655
0.050572 -0.007056 0.681484
-0.067635 -0.007779 0.776032
0.049624 -0.022124 0.689689
0.149182 -0.032680 0.792039
0.072580 -0.109451 0.615219
0.077571 0.001713 0.608340
-0.122157 0.158055 0.570729
0.095931 -0.005221 0.635555
0.047778 -0.002482 0.705538
0.065150 -0.069447 0.604443
0.114312 0.003631 0.738635
0.064059 -0.056463 0.672346
-0.273704 -0.019720 0.777158
0.071385 -0.048898 0.619069
0.114681 0.074144 0.814562
0.017908 -0.009348 0.604836
0.022839 -0.050134 0.735612
0.044417 0.158666 0.686011
0.118808 0.003339 0.705397
0.084484 0.053785 0.604348
0.020348 -0.007087 0.708082
-0.125031 0.130775 0.576876
0.049150 0.195866 0.670653
0.034367 -0.035385 0.698082
0.080255 -0.138331 0.649738
0.062753 -0.043777 0.635925
-0.257988 0.221548 0.754117
-0.062508 0.032025 0.750875
-0.223408 0.084974 0.823222
0.147032 -0.045458 0.746521
-0.197362 -0.080702 0.758411
0.061196 0.019017 0.645109
0.107583 0.144061 0.666105
0.009787 -0.035175 0.713442
0.056816 0.003921 0.722658
0.016898 -0.129068 0.820010
-0.237298 0.083745 0.845746
0.043080 0.010143 0.610129
0.061468 0.020111 0.637651
-0.207063 0.155040 0.577559
0.044707 0.164123 0.697325
0.094777 -0.022209 0.647670
-0.164108 0.083520 0.531680
0.083767 -0.112327 0.689450
0.024583 0.041165 0.711438
0.046370 -0.139580 0.842279
0.022161 -0.065028 0.729808
-0.119256 0.075629 0.543607
0.039267 0.072447 0.658209
0.321908 -0.029386 0.706698
0.057239 -0.020430 0.741788
0.100584 -0.030755 0.509923
0.120370 -0.108072 0.680782
-0.161986 -0.090405 0.651855
0.064769 -0.017647 0.612693
-0.220236 0.093967 0.630614
0.067884 -0.069231 0.604882
0.222833 -0.102597 0.859091
-0.150838 0.000746 0.660195
0.152189 0.000917 0.778165
0.123863 0.101703 0.703481
0.072996 0.056331 0.637939
0.086910 0.043907 0.613976
0.083010 0.051521 0.611295
0.114304 -0.026047 0.541444
0.081016 0.040622 0.597487
0.099428 -0.058846 0.718767
-0.156794 0.078537 0.449411
-0.196329 0.101037 0.551844
0.061256 0.064675 0.614669
-0.106944 0.003619 0.751810
0.019199 -0.039374 0.683941
-0.051034 0.034038 0.629732
-0.132158 0.095267 0.436298
0.012960 -0.108207 0.646536
-0.201755 0.149405 0.566846
0.193861 0.051919 0.604185
0.182775 0.056506 0.608379
-0.084198 0.175623 0.647326
0.018985 -0.104781 0.818529
-0.157322 -0.039676 0.485893
-0.241027 0.089721 0.647094
-0.126890 -0.128675 0.715130
0.013071 0.187535 0.664548
0.267168 0.124678 0.871437
-0.301665 0.072978 0.852138
-0.051026 0.207769 0.669991
-0.095157 0.015812 0.668367
0.106227 0.131709 0.728138
0.082880 0.039953 0.601242
0.006171 -0.139619 0.622537
0.099582 0.155568 0.700973
0.124096 -0.025033 0.730137
0.069221 0.039741 0.639268
0.029980 -0.061250 0.676656
-0.151639 -0.148230 0.698149
-0.153873 0.127080 0.557780
0.000167 -0.130065 0.695405
0.050788 0.024654 0.677985
0.040388 0.131379 0.694495
0.098993 0.015988 0.635026
0.117178 -0.005539 0.706298
0.091120 0.124974 0.694852
0.044819 0.013611 0.682780
0.055507 -0.015941 0.672219
-0.128789 0.084705 0.585991
-0.201055 0.152885 0.563581
0.003756 0.169140 0.682695
0.232369 -0.004074 0.692360
0.068081 0.005147 0.605278
-0.195618 0.130168 0.754471
0.063596 0.042684 0.654682
0.514975 -0.061047 0.659854
0.069229 0.060059 0.603132
0.053307 -0.027347 0.661700
0.135258 0.002973 0.656168
-0.140227 -0.156571 0.710302
-0.147103 -0.052198 0.615344
-0.052949 -0.019297 0.723003
0.051710 0.022764 0.610761
0.249812 0.037110 0.766236
0.091389 -0.077149 0.647612
0.019605 -0.147848 0.835247
-0.131766 0.083821 0.597308
-0.131779 0.101536 0.593439
-0.143231 -0.141282 0.740556
-0.117240 -0.027169 0.836443
-0.053413 -0.019533 0.721419
0.200251 0.099701 0.650662
0.065285 0.000819 0.506283
-0.136771 0.048067 0.606928
0.133830 0.122903 0.706086
0.044924 0.026986 0.612605
0.213005 -0.006999 0.705905
0.039860 -0.032286 0.701826
0.140302 0.162539 0.691975
0.050406 -0.036566 0.722210
0.052298 -0.002929 0.625002
-0.143823 0.076118 0.542734
-0.349845 0.176492 1.132622
0.117297 -0.143809 0.658931
-0.205980 -0.197188 0.985156
-0.219571 0.107094 0.725241
0.042947 -0.120976 0.706508
0.177836 0.019416 0.546933
0.078139 -0.117510 0.666389
0.136878 -0.085694 0.785183
0.034179 0.129051 0.689449
0.075567 0.045261 0.633814
-0.146929 -0.021506 0.620271
-0.203181 0.165367 0.570523
0.038787 0.029005 0.622472
-0.045703 0.149169 0.717727
0.018391 -0.072235 0.719578
-0.133620 0.125431 0.443762
-0.109500 0.048624 0.797328
0.478993 0.022969 0.638045
0.463021 0.104318 0.598025
0.453516 0.025395 0.645842
0.026691 0.062130 0.683668
0.046196 0.035000 0.650056
-0.130584 0.130400 0.593714
0.121745 0.003616 0.722106
0.119266 -0.007687 0.712613
-0.059320 0.055219 0.743058
0.060330 0.008821 0.689203
-0.155091 0.053709 0.499756
0.141829 -0.002627 0.723581
0.065508 -0.003964 0.606143
0.021276 -0.076492 0.698231
-0.171845 0.138436 0.608817
0.026544 -0.081010 0.605547
0.061852 -0.025719 0.618606
0.041035 0.165824 0.673028
0.068600 0.059851 0.688044
0.026038 0.062185 0.698268
0.031985 -0.033412 0.685850
-0.052297 -0.000500 0.599043
-0.317294 0.121364 0.806557
-0.166374 0.061795 0.472690
0.099483 0.148465 0.684909
0.119808 -0.007557 0.707118
0.113154 0.030144 0.666450
0.224564 0.046530 0.678978
-0.153787 -0.004895 0.646854
0.055971 0.026952 0.636316
0.081690 -0.013262 0.405978
0.065433 -0.038356 0.679385
0.021659 0.026473 0.662984
0.019444 -0.066436 0.782954
0.094625 -0.089970 0.681305
0.042364 0.054088 0.664291
-0.159875 -0.004910 0.673649
0.067779 0.004703 0.608042
0.229633 -0.047842 0.637816
0.159733 0.083058 0.516103
-0.093171 -0.043283 0.646885
0.092364 0.000549 0.601028
0.215000 0.043916 0.727027
0.002199 0.168257 0.678637
0.008305 -0.020318 0.582992
0.232330 -0.017181 0.623943
0.111231 -0.038286 0.652463
0.282011 -0.026833 0.700344
-0.009312 0.166025 0.670614
0.150659 0.069320 0.492689
0.018658 -0.099065 0.764978
0.157485 0.190845 0.692627
0.017432 0.142298 0.689422
0.062497 -0.045483 0.636793
0.022180 -0.032843 0.711477
-0.116404 -0.125086 0.633446
-0.109573 -0.052354 0.753899
0.009700 -0.145700 0.750127
0.208726 0.046655 0.676338
-0.057809 0.210158 0.675706
-0.163186 -0.005152 0.691105
0.065657 -0.028563 0.654390
0.002595 0.110977 0.729538
0.072001 -0.088491 0.693167
-0.147348 -0.059253 0.449738
0.115354 -0.033693 0.672368
-0.033834 0.186926 0.651057
-0.148160 -0.159693 0.787277
0.039074 0.111724 0.678711
-0.127351 -0.035319 0.357210
0.218846 0.051439 0.655300
0.124586 -0.126984 0.673644
0.051781 0.028717 0.728234
0.334852 0.024802 0.672697
-0.087309 0.113589 0.711484
-0.038802 0.192591 0.628690
0.172942 -0.134153 0.698533
0.065380 0.061087 0.655966
0.072410 -0.008393 0.618069
-0.069875 0.036741 0.732802
0.106561 -0.115705 0.612699
0.112366 -0.134911 0.757530
0.063277 0.056831 0.656730
-0.147078 0.154375 0.545509
0.015254 0.056469 0.628169
0.070597 0.025086 0.608287
0.118525 -0.078248 0.651192
0.079437 0.035470 0.653111
-0.033276 -0.038511 0.700455
0.167543 -0.034255 0.836045
0.044421 -0.036638 0.685829
0.039263 -0.008053 0.700577
0.178752 0.039763 0.846844
0.129264 -0.103950 0.731677
0.129514 0.023636 0.632398
0.014637 -0.122925 0.692394
