ply
format ascii 1.0
element vertex 1644
property float x
property float y
property float z
end_header
0.034287 -0.466674 1.478647
0.135772 -0.326159 0.999067
0.134181 -0.231378 0.985657
0.118201 -0.276359 1.020486
0.168456 -0.385542 0.965090
0.054500 -0.331345 0.835845
0.431976 -0.238974 0.852920
0.499498 -0.241112 0.944488
0.233747 -0.257239 0.767017
0.233201 -0.244422 0.766121
0.075305 -0.090247 0.913320
0.155962 -0.183178 0.918232
0.229958 -0.099628 0.519595
0.055240 -0.167251 0.983511
0.030823 -0.140496 0.977755
-0.114616 0.000926 0.315151
-0.113557 0.001112 0.313508
-0.034364 -0.030888 0.504848
0.095151 0.254045 1.310837
-0.363062 -0.272754 1.354577
-0.139833 0.041464 0.462801
0.059983 0.004131 0.613530
0.040741 0.009385 0.388243
0.062094 0.039762 0.748180
0.088664 0.067207 0.821969
-0.141282 -0.309439 1.815101
-0.399860 -0.315112 1.603625
-0.164505 -0.025549 0.593957
-0.491646 -0.224854 0.843033
-0.210228 -0.141453 0.665305
0.048971 -0.180082 0.879352
0.065001 0.021423 0.529153
-0.062427 0.015726 0.465578
-0.129856 -0.069566 0.297213
-0.217945 -0.167308 0.807861
-0.507640 -0.240654 0.878969
-0.063729 0.031925 0.309022
-0.342904 -0.116100 0.905123
0.056350 0.032863 0.653274
0.103035 -0.204689 1.171235
0.001533 0.021549 0.456668
-0.061906 0.032206 0.463128
0.041739 -0.209788 0.849208
-0.167722 -0.229176 0.875802
0.051357 -0.141950 0.853753
0.146733 -0.231529 1.062953
0.021875 0.050187 0.371873
-0.230244 0.029441 0.367256
-4.305822 0.737526 1.573469
-0.253537 0.041938 0.249884
-0.233377 0.056428 0.249030
-0.147023 0.069218 0.222889
-0.572621 -0.161169 0.665888
-0.645691 0.036418 0.264277
-1.933793 0.159243 1.207940
-2.682483 -0.852523 2.114980
-0.357756 -0.012889 0.315462
-1.106410 -0.268639 0.268796
-0.282109 -0.090795 0.811983
-1.014852 -0.068688 0.491034
-0.272823 0.061281 0.321138
-0.096847 0.022017 0.230136
-0.791260 -0.271116 0.283967
-1.541072 -0.401574 0.917037
-1.132951 -0.260946 0.220481
-1.273652 -0.281161 0.215091
-0.078158 0.038515 0.256840
-0.262778 0.032432 0.373808
0.128251 -0.294770 1.458526
-0.610894 0.058513 0.241078
-0.492911 0.050674 0.547927
0.026930 0.033632 0.166885
0.003534 0.021521 0.157558
-0.946056 -0.255037 0.232370
-1.275311 -0.289997 0.282039
-1.091061 -0.248148 0.265700
-0.407459 0.039580 0.219637
-0.508608 -0.000413 0.236869
-0.643837 0.057100 0.249773
-1.476105 -0.696617 1.664664
0.002662 0.017410 0.413428
0.007522 0.041667 0.393717
-0.097161 0.039127 0.269704
-0.058710 -0.011977 0.227795
-0.043488 0.035499 0.235044
-0.269384 -0.238827 0.942488
-0.821087 -0.435188 2.978375
-0.457187 0.077577 0.362150
-0.111119 -0.009361 0.520746
0.053108 0.002034 0.583988
-0.191751 -0.270116 0.940056
0.027376 0.026370 1.019166
-0.135969 -0.094965 0.750799
-0.676093 -0.143913 0.317705
0.044859 -0.054029 0.823457
-0.733902 -0.041356 0.544888
-2.988712 -0.805721 1.383860
-0.705405 -0.315906 1.478474
-0.091054 -0.188545 1.299165
-0.006440 0.033777 0.268238
-0.111322 0.037997 0.326295
-1.319623 -0.091994 1.573097
-0.018755 0.028514 0.326370
0.130277 -0.371370 1.417895
-1.135936 -0.321026 0.270795
-0.886914 -0.281056 0.272577
-0.116103 0.035764 0.320782
-0.370068 -0.240605 0.848372
-1.149622 -0.282525 0.174811
-0.151980 -0.061545 0.320038
-0.576431 0.009709 0.187726
-0.595268 -0.178721 0.239153
-0.279274 -0.011646 0.298557
-0.435618 0.083509 0.265224
-1.064836 -0.348784 0.376579
-4.600639 -1.229007 1.451673
-0.261883 -0.081390 0.422533
-0.056417 -0.047456 0.283964
-1.430558 -0.739205 1.822122
-3.177711 0.824952 2.866525
0.058249 0.032868 0.177601
-1.050027 -0.232676 0.259895
0.049371 0.030442 0.189783
-0.352737 -0.219901 0.826389
-0.696484 -0.312048 1.196585
0.119442 -0.316397 1.411862
-0.135949 -0.386913 1.696166
-0.118445 0.039314 0.322884
-0.120857 0.023951 0.304764
0.127785 -0.285231 1.358907
-1.566014 -0.391201 1.484163
-0.350923 -0.106530 0.469206
-0.106384 0.053161 0.399686
0.015406 0.034867 0.173499
-1.209287 -0.286668 0.290046
-1.151376 -0.267681 0.236114
-0.421909 0.071780 0.344993
-0.135551 -0.092626 0.758599
-0.250710 -0.051368 0.427598
-0.021189 0.030413 0.210803
-3.084823 -0.828501 1.431077
-0.111866 -0.028527 0.148650
0.069044 0.028225 0.222550
-0.018925 0.033510 0.277066
-0.128659 0.043420 0.356981
-0.314103 -0.025410 0.438239
0.033880 -0.267943 0.923303
-0.660746 -0.312138 0.468342
-0.088499 0.023965 0.577054
-0.156083 -0.207217 0.822207
0.052936 0.028925 0.216747
-3.684365 -0.333976 1.264344
-0.682779 -0.278994 0.530863
0.001728 0.018414 0.424343
-1.151684 -0.265691 0.291956
-2.899184 0.028393 0.962056
-0.427825 -0.092040 0.242068
-0.229224 0.039027 0.229495
0.133167 0.001212 0.245098
-2.633039 -0.562741 1.609868
-1.742996 -0.479495 1.105988
-0.193945 -0.274616 0.915026
-0.040799 -0.022651 0.152884
-0.018381 0.038910 0.164126
-0.451584 -0.013911 0.590636
-0.407880 0.035823 0.549353
-0.001880 0.035569 0.161271
-0.896084 -0.299264 0.314581
-1.326376 -0.103261 1.587243
-0.885840 0.113063 0.470771
-0.583913 -0.287140 0.460726
-0.841308 -0.218650 0.383416
-0.614208 -0.202762 1.438417
-2.295749 -0.206637 1.535301
-0.447350 -0.335258 1.887412
0.002614 -0.012793 0.187131
-1.849855 0.157571 0.621231
0.126370 -0.351579 1.353661
0.090516 0.713579 2.607478
-0.119659 -0.062751 0.287714
-0.006813 -0.048633 0.905732
-2.427616 0.179032 1.500091
-1.372922 -0.155004 0.236692
-1.082150 -0.282058 0.326910
0.144590 -0.317685 1.504192
0.065093 0.288189 1.405793
-0.358227 -0.217433 0.800121
-2.316635 0.375947 1.289639
0.008553 0.019305 0.176707
0.074266 0.031655 0.214185
0.039535 0.027682 0.222977
-1.163052 -0.236235 0.165580
-1.805766 0.159790 0.618351
-0.289808 -0.092586 0.451353
-0.006209 0.033588 0.267656
-0.862219 -0.312999 0.541068
0.017590 0.008805 0.592073
-2.568197 -0.797828 1.557846
-2.452918 -0.659742 1.495209
-0.067348 0.030015 0.335869
-3.036267 0.233976 1.034038
-0.235730 0.009280 0.297198
-0.324032 -0.114404 0.839264
0.073522 0.032052 0.214709
-3.246173 -0.305967 1.659461
-0.103823 0.038002 0.242866
-0.042926 0.034657 0.233576
-0.277755 0.038872 0.251195
-2.627825 -0.531855 1.542084
-0.231067 0.004979 0.738172
-0.145506 0.002186 0.418447
0.054413 -0.304273 0.975186
0.058358 -0.455660 1.454711
-0.249431 -0.223120 0.888763
-0.249677 -0.274719 0.809398
0.152812 -0.312951 1.471364
0.138526 -0.238775 1.276635
0.002986 0.017774 0.415899
0.035186 0.012091 0.423007
0.114269 -0.361409 1.646670
-0.250261 -0.113544 0.801143
-0.002629 0.035910 0.159285
-0.170709 0.038993 0.317767
-0.517978 0.030107 0.832068
-0.294603 -0.094323 0.462174
-1.737993 -0.248975 1.547549
-0.507699 0.077311 0.298567
-3.600247 -0.023083 1.629558
-2.761667 -0.553894 1.612816
-1.362147 -0.268662 1.579961
0.057036 0.215804 0.925357
0.063932 -0.380378 1.301233
0.080276 0.600312 2.245381
-2.389049 -0.850138 1.581028
-1.920396 -0.181517 1.308462
-0.020180 0.030465 0.339958
-0.083814 0.036615 0.368182
-1.185919 -0.363323 0.124559
0.002782 0.016918 0.410650
-0.076713 0.038847 0.213371
-2.164165 -0.308381 1.341114
-0.166793 -0.023240 0.218391
-0.249426 -0.084114 0.214041
-0.026273 0.050194 0.232989
-0.006046 0.018844 0.175374
-0.323543 -0.073022 0.501197
-0.241010 0.041511 0.255713
-1.516767 -0.399597 1.691851
0.017059 0.034343 0.173667
-0.537010 -0.004149 0.514838
0.012634 0.028646 0.251110
-3.571402 0.438180 1.573163
-0.002385 0.034864 0.159103
-2.084208 0.325022 1.148005
-2.130924 -0.261517 1.383392
-1.740524 -0.579460 1.080060
0.008015 -0.048294 0.891514
-0.235859 -0.032223 0.400346
-0.133400 0.019643 0.307981
-0.087220 0.036692 0.236890
-0.305348 0.045951 0.331921
-0.327732 0.050119 0.346515
-1.460649 -0.279787 1.645013
-0.018274 0.027845 0.324879
-0.313333 0.044481 0.362740
-1.358259 -0.246827 0.236275
-0.643097 0.064027 0.173097
-2.070091 -0.300085 1.596063
-2.807847 -0.632950 1.735015
-0.169458 0.036279 0.310907
-2.334799 -0.002968 1.025295
-1.358772 0.137418 1.628663
-0.016294 0.029496 0.254150
-0.044233 0.036810 0.215676
-0.495217 -0.308619 1.314063
-0.191030 -0.005102 0.351419
-0.364242 -0.151828 0.884600
-1.858671 0.013792 0.788090
-0.144937 -0.103352 0.602655
-0.172102 -0.082684 0.331376
0.028817 0.023903 0.345361
-1.653900 -0.086471 1.571427
-0.479031 0.025483 0.780718
-0.341170 -0.059650 0.420234
-0.132308 -0.065441 0.512850
-0.354823 -0.115995 0.470225
0.050450 0.026775 0.598618
-0.007215 0.021542 0.401134
-0.076810 0.037858 0.260919
-1.797066 -0.476399 1.652261
-2.303356 0.325521 1.664945
-1.514029 -0.410081 1.709713
-0.398800 0.010762 1.135531
0.086581 0.025815 0.235064
-0.266442 -0.059951 0.443408
-1.599284 0.165034 1.891916
-2.173566 0.311043 0.859678
-0.091512 0.039340 0.214458
-0.258170 -0.174879 0.785153
-0.277174 -0.376372 1.259206
-0.661886 0.011840 0.226317
-0.029503 0.010030 0.154134
-0.167817 -0.097187 0.569139
-0.077527 0.037734 0.255067
-0.101669 0.037360 0.231559
-3.106245 -0.040271 3.270379
-0.034013 -0.011506 0.272767
-0.107878 -0.001042 0.308164
0.098193 0.323417 1.904363
0.042660 0.010853 0.397832
-0.197971 0.000815 0.418966
-0.140793 -0.074927 0.307081
-0.314117 -0.047421 0.397644
-0.115614 0.033684 0.420894
-0.240194 -0.122723 0.727881
-0.020943 0.034602 0.268584
-2.291908 0.169935 1.562046
-0.074431 0.036511 0.258194
0.040487 0.033807 1.205024
-0.009776 -0.018243 0.209889
-0.192152 -0.127770 0.737139
-0.409512 0.076303 0.305795
-0.744670 -0.005884 1.142758
-0.375891 0.070152 0.290942
-0.016547 0.030797 0.256338
-0.071778 0.059890 0.213896
-0.108624 0.036046 0.349388
-0.091842 0.040087 0.386070
-0.036432 -0.021473 0.866398
-0.113722 -0.062193 0.282117
-0.162550 -0.223421 0.828098
-0.300954 -0.044184 0.387899
-0.380280 -0.163034 0.636596
-0.543028 -0.182417 1.289406
0.015131 0.022595 0.485499
-1.684442 -0.849737 2.081481
0.047767 0.035071 0.156993
-0.017351 0.033172 0.246655
0.058629 0.030356 0.190623
0.057588 0.029853 0.176062
-0.131552 0.020309 0.340355
-2.740570 -0.124806 1.505195
0.108533 0.026778 0.195321
-1.106756 -0.199292 0.149312
-1.224818 -0.371769 0.123367
-0.004371 0.007352 0.155305
-0.021602 0.022698 0.161011
-2.752540 -0.802032 1.603134
-1.350207 -0.318727 0.965465
-0.076233 0.036914 0.253566
-2.646305 -0.123064 1.583623
-1.119293 -0.300460 0.809129
-2.622467 -0.673376 1.705341
-4.036185 -0.773332 1.254926
-1.166596 -0.301652 0.308244
-3.018426 -0.281142 1.565445
-0.135552 -0.085220 0.243522
-0.110805 0.032624 0.378233
-0.358541 -0.231038 0.826408
-0.095116 -0.058990 0.403103
-0.242845 0.008626 0.579238
-0.016965 0.029853 0.253942
-0.139603 0.013232 0.315359
0.043280 0.013099 0.944682
-1.800790 -0.373752 1.500159
-0.077972 0.019339 0.558062
-0.165656 -0.092435 0.666030
-0.434957 -0.443817 1.450591
0.041200 -0.214051 0.783129
-0.117795 -0.309751 1.538046
0.078745 -0.283122 1.273077
0.055287 -0.297090 1.031408
0.148165 -0.273150 1.227877
-1.807389 -0.123847 1.872782
-0.455799 -0.188152 0.715128
-0.004984 -0.046686 0.871113
-0.021389 0.027507 0.347346
-2.563710 0.187660 2.448814
0.047243 -0.269285 0.827107
0.057959 0.027500 0.190121
-0.169662 0.068334 0.243796
-0.089543 0.045114 0.585473
-0.257784 0.039160 0.389725
-0.064484 0.016842 0.324750
-0.018073 0.034042 0.248957
-0.089236 0.019837 0.231963
-0.121066 -0.002008 0.560720
-0.078672 -0.058336 0.526371
0.078333 -0.239203 0.975153
-2.988215 -0.128116 1.616822
-0.395521 -0.208186 0.909118
-0.170457 0.064560 0.268373
-0.075612 0.033254 0.162319
-0.124245 0.063655 0.188323
-0.101046 0.036999 0.231006
-0.655096 -0.050783 1.408420
-0.352335 -0.217814 0.823162
-0.388053 0.008970 0.884355
-1.847473 -0.266179 1.634725
-1.274911 -0.308166 0.900960
-1.907020 -0.573750 1.193164
-4.344000 -0.950022 2.507996
-1.218440 -0.408490 0.913226
-1.156628 -0.229183 0.284853
-0.143398 0.006678 0.557700
-0.321341 -0.044076 0.349368
-0.172525 -0.059001 0.345854
0.086080 -0.307208 1.323046
-1.791451 -0.509953 1.633124
-1.992859 -0.212443 1.438058
-0.001937 0.009752 0.523980
-0.062891 0.032308 0.310764
-0.005898 0.033549 0.267518
-0.007573 0.035043 0.272480
-0.456217 -0.033499 0.612971
-0.124843 -0.040610 1.061954
-0.020016 0.034187 0.278231
-0.302886 -0.060972 0.466235
0.012435 0.031053 0.304156
-0.131753 0.026412 0.308708
-0.017530 0.031635 0.269952
0.048215 0.196348 1.249902
-0.111414 0.036444 0.340651
-0.168372 -0.017187 0.337104
0.019128 0.019540 0.325237
-0.101162 0.032930 0.322391
-0.128945 -0.085332 0.427738
0.006898 -0.010336 0.182383
-0.108070 -0.002307 0.307959
-0.108316 -0.010619 0.826877
-0.388784 0.021069 0.851169
-0.170684 -0.128198 0.761455
-0.335702 0.016134 0.722508
-0.053711 0.023702 0.304462
0.029061 -0.130850 0.799572
0.042902 -0.402000 1.292458
-0.559252 0.022145 0.876187
-0.260335 -0.110672 0.685178
-0.108226 0.037729 0.286587
-0.114723 0.000459 0.315277
-0.399397 -0.027561 0.936363
-0.108391 0.032069 0.380535
-0.223563 0.037050 0.454546
0.025680 -0.008262 0.317103
-0.117284 -0.274733 0.997114
-0.084086 -0.008031 0.279326
0.006922 -0.010338 0.182309
-0.102874 0.032264 0.338402
-0.366713 -0.030500 0.901905
-0.066364 0.033490 0.314139
-0.099210 0.034011 0.280476
-0.045322 -0.040626 0.320953
-0.107941 0.020544 0.291105
-0.109208 0.036520 0.350433
-0.128726 -0.061163 0.327193
-0.020091 0.027957 0.341049
-0.171059 -0.119713 0.580445
-0.123047 0.023433 0.299553
-0.114672 0.016570 0.533873
-0.110907 0.016277 0.327614
-0.146776 -0.038576 0.544719
-0.143515 -0.105986 0.728757
0.159488 -0.218793 0.887209
-0.135048 -0.063258 0.334132
0.210080 0.017354 0.430775
0.201419 0.000131 0.386529
0.049803 -0.240175 0.939649
0.054277 0.049923 0.146149
-0.128819 0.024569 0.304695
-0.153839 0.007231 0.585256
-0.109021 0.011527 0.307092
0.225710 -0.115201 0.548867
-0.131585 0.007320 0.306622
-0.121833 -0.006516 0.567396
0.042991 -0.173197 0.917509
0.208079 0.001108 0.437737
-0.128829 -0.149103 0.492349
0.222189 -0.003284 0.487601
-0.120134 -0.003595 0.554825
0.243654 -0.021248 0.580646
-0.245240 -0.306594 0.946451
0.217151 0.013555 0.475784
0.236968 0.003050 0.566823
0.187087 0.011475 0.441537
-0.036964 0.044719 0.186531
-0.103885 0.046306 0.183657
-0.128880 0.024749 0.305978
0.238471 -0.095073 0.430129
0.183995 0.011062 0.434800
0.205827 0.013964 0.418996
0.215631 0.000526 0.449979
-0.062834 0.048690 0.153140
0.243560 -0.096697 0.437651
0.212088 0.018572 0.406479
0.222569 -0.010098 0.470163
0.212065 -0.010623 0.482659
-0.133728 -0.122562 0.302144
-0.102627 0.042785 0.251288
0.277176 -0.014672 0.484262
0.206537 -0.001280 0.391194
0.219655 -0.002533 0.430549
0.259466 -0.006687 0.464204
-0.114831 0.017861 0.317736
0.125328 -0.263486 0.947359
0.209990 -0.009433 0.420124
-0.361354 -0.428022 1.559165
0.232823 -0.217683 0.764014
0.314461 -0.225397 0.864700
0.264488 -0.148861 0.829443
0.232468 -0.016192 0.743867
0.239197 -0.088045 0.518244
0.247627 -0.083712 0.524863
0.517403 -0.262813 0.984589
-0.479616 -0.454964 1.646520
0.258734 -0.149264 0.786189
-0.127371 -0.070996 0.510771
-0.112311 0.013661 0.315269
0.236475 -0.018376 0.760576
0.172448 -0.008866 0.723984
0.249906 -0.087281 0.496941
-0.192123 -0.116605 0.852461
-0.113188 0.004882 0.315928
0.177980 -0.180286 0.798180
0.214965 -0.000610 0.408049
-0.085292 -0.056497 0.929745
0.016667 -0.442475 1.401899
0.173255 -0.219231 0.796235
0.209934 0.018933 0.395406
-0.013878 0.017495 0.588295
-0.132530 -0.094155 0.302930
0.282796 -0.215690 0.815088
0.272280 -0.119824 0.653796
-0.127054 -0.142780 0.508241
0.241142 -0.085767 0.492929
0.105437 -0.369151 1.428129
0.114650 -0.290040 1.040434
0.031995 -0.186117 1.205055
0.055188 -0.098549 0.937683
0.274972 -0.183462 0.814810
0.219753 -0.021909 0.492279
0.167698 -0.046596 0.883111
0.347353 -0.257698 0.812924
0.165170 -0.010691 0.705408
0.180520 -0.237170 0.836970
0.422937 -0.252315 0.882323
0.384053 -0.192091 0.771675
0.068721 -0.320976 1.007102
0.124256 -0.361430 1.135845
0.127414 -0.422141 1.155451
0.373188 -0.210669 0.742626
0.108439 -0.224126 1.277034
0.179870 -0.254375 1.047006
0.188966 -0.191917 0.828838
0.256935 -0.004555 0.621703
0.314273 -0.152340 0.806497
0.241825 -0.254391 0.790908
-0.118509 -0.371599 0.993129
-0.112736 -0.475169 1.510677
-0.075573 -0.163271 1.102118
0.136363 -0.506419 1.601463
0.309487 -0.192799 0.720324
0.269736 -0.175266 0.823812
0.127250 -0.413621 1.123761
-0.450311 -0.513813 1.960132
0.152305 -0.350284 0.867330
0.230782 -0.020484 0.517113
0.324112 -0.240436 0.724375
0.256529 -0.261940 0.793410
0.280861 -0.217685 0.818151
0.263168 -0.179726 0.787867
0.131035 -0.279147 0.976937
0.356805 -0.262896 0.837180
0.335240 -0.208677 0.780673
0.316983 -0.148593 0.747303
0.442992 -0.279896 0.825199
0.161843 -0.507133 1.216573
0.173187 -0.315848 0.804167
-0.144676 -0.227839 0.734793
-0.103559 -0.008775 0.834751
0.130503 -0.039899 0.840885
0.199711 -0.270456 0.949739
0.139643 -0.190097 1.028899
0.420828 -0.267195 0.784995
0.061587 -0.382532 0.905679
0.146029 -0.431165 1.074974
0.161533 -0.372614 0.928894
0.150239 -0.321374 0.909030
0.051900 0.019006 0.715885
0.020548 0.135724 1.161065
0.257910 -0.167582 0.790931
0.224426 -0.206447 0.744263
0.372812 -0.292059 0.887174
0.048423 0.189322 0.932353
0.129869 -0.300263 0.962706
0.167432 -0.310511 1.002042
0.053911 -0.348567 0.826288
0.154986 -0.482733 1.155982
0.137008 -0.250905 1.003107
0.263182 -0.181781 0.796465
0.331232 -0.179120 0.874349
0.299345 -0.231889 0.823347
0.059621 -0.277499 0.961623
0.123525 -0.351928 1.076869
0.287389 -0.133433 0.679739
0.093766 0.184150 1.281804
0.277162 -0.256317 0.827107
0.042928 -0.449599 1.084121
-0.091662 -0.464344 1.466438
-0.013427 0.042181 0.165378
-0.007901 0.044970 0.206827
-0.038072 0.046501 0.193499
-0.148260 -0.010678 0.787859
-0.004156 0.047429 0.151039
-0.007374 0.041973 0.193010
-0.013908 0.045072 0.175382
-0.130249 0.003379 0.305349
-0.078423 0.038927 0.252049
-0.015609 0.037237 0.251854
-0.043742 0.037725 0.230713
-0.047772 0.041321 0.243301
0.038664 0.033481 0.229006
0.040901 0.034942 0.234485
-0.144150 -0.068814 0.466248
0.251385 -0.088389 0.531969
0.046092 0.184136 0.694071
0.228301 -0.098933 0.521955
0.240566 -0.121439 0.572920
0.205609 0.000797 0.466094
-0.048157 0.041223 0.247431
-0.132105 0.006776 0.310439
0.209332 0.001386 0.484855
0.232508 -0.005842 0.561815
0.228435 -0.212128 0.753391
-0.140725 -0.171691 0.561300
0.231319 -0.193280 0.759546
0.073803 -0.253209 1.126469
0.109287 -0.216542 1.235843
0.149837 -0.318600 0.886655
-0.191042 -0.303913 0.924991
-0.200572 -0.309964 1.020308
0.236085 -0.022226 0.569037
0.271918 -0.202912 0.856564
0.185533 -0.223094 0.923574
0.372658 -0.294084 0.901260
0.124735 -0.085481 0.865863
0.214384 -0.183522 0.601432
0.133128 -0.217436 0.998908
0.169984 -0.277928 0.989370
0.211908 -0.004707 0.486258
0.195079 -0.083694 0.457175
0.173884 -0.398754 0.992406
0.073184 0.033541 0.262505
-0.007408 0.042980 0.199235
0.025048 0.045961 0.168260
0.165093 -0.067499 0.872093
-0.422745 -0.463235 1.643365
0.243692 -0.126198 0.536279
0.036395 -0.512198 1.206018
0.091662 -0.273715 1.176972
0.129618 -0.416666 1.445696
0.097377 -0.269265 0.995256
0.122618 -0.262681 1.052237
0.388740 -0.244842 0.762672
0.077202 -0.234096 0.874588
0.137214 -0.274664 1.014066
0.171291 -0.293535 0.835665
0.319864 -0.147498 0.808550
0.055425 -0.117109 0.945752
0.143764 -0.306500 1.220010
0.166185 -0.182391 0.984374
0.232776 -0.146660 0.765928
0.220219 -0.011594 0.705685
0.219274 -0.017975 0.497457
-0.133169 -0.204974 0.721201
-0.047891 -0.480104 1.099165
0.344098 -0.189994 0.785154
0.341167 -0.244058 0.833115
0.235262 -0.416909 1.108863
-0.109522 0.030044 0.310192
0.283758 -0.229330 0.820167
0.291370 -0.151151 0.703766
0.251890 -0.371135 0.826640
0.049907 -0.088640 0.899239
-0.122010 -0.066676 0.492981
0.264450 -0.005716 0.603971
0.290312 -0.169576 0.790880
-0.443729 -0.226832 0.843102
0.202249 -0.085416 0.459546
-0.122359 0.018066 0.329461
0.552173 -0.177676 0.686020
0.224343 -0.003489 0.550962
0.283806 -0.262252 0.837543
0.142922 -0.013050 0.803572
0.000064 0.002432 0.650375
0.149730 -0.142898 0.867653
0.057606 0.000336 0.652101
0.055584 -0.000051 0.629394
0.143203 -0.399400 1.388376
0.237086 -0.345329 1.375095
0.260687 -0.090211 0.550975
-0.138193 -0.221091 0.710321
0.204099 -0.009227 0.412965
0.325293 -0.201216 0.756362
0.101929 -0.215979 1.016262
-0.212553 0.035222 0.362991
0.282841 -0.198665 0.708579
0.324191 -0.238756 0.829778
0.171087 -0.233008 0.812456
0.054263 -0.115079 0.928272
0.115056 -0.254310 1.041324
0.052447 -0.327186 0.819431
0.089528 -0.275927 1.022736
0.262731 -0.231496 0.811813
0.258495 -0.177737 0.776466
0.341278 -0.236464 0.814560
0.116108 -0.310052 0.881397
0.187973 -0.124997 0.624883
0.238257 -0.261919 0.778334
-0.014034 0.041460 0.194371
0.087874 0.033032 0.310933
0.104910 -0.235180 0.988293
0.021946 0.038758 0.212788
-0.120083 0.014945 0.550380
-0.088670 -0.041009 0.211401
-0.014454 0.043065 0.198870
0.028080 0.043442 0.194687
0.175414 -0.374111 1.031388
0.231772 -0.096047 0.520588
-0.116830 -0.061150 0.315737
-0.016674 0.029737 0.329618
0.052160 0.048387 0.142325
0.161959 -0.268679 0.963162
0.105247 -0.263098 1.053886
-0.561774 -0.327696 1.442222
-0.488527 -0.345645 1.299440
-0.316262 -0.112600 0.823727
0.234469 -0.206866 0.766367
-0.499358 -0.261659 1.693313
-0.005507 0.027538 0.315335
-0.103544 0.030573 0.403206
0.128512 -0.341224 0.959424
-0.144270 -0.107277 0.789218
0.260518 -0.241882 0.774235
0.279194 -0.167484 0.622644
0.192795 -0.324032 0.948383
0.163597 -0.306522 0.965865
0.274106 -0.255268 0.815084
0.341388 -0.186411 0.776490
0.147055 -0.248991 0.731386
0.171529 -0.282440 0.897071
0.124121 -0.330635 0.924735
-0.114054 0.019859 0.293622
-0.172899 -0.103491 0.750509
-0.107349 0.036823 0.316325
0.077475 0.020451 0.527724
0.024262 0.015137 0.803752
0.276340 -0.215096 0.817804
-0.483376 -0.023664 0.855886
-0.574565 0.007836 0.926746
0.241229 -0.180645 0.777830
0.140337 -0.323714 1.025702
0.140605 -0.219907 1.026880
0.401496 -0.224428 0.795944
0.063807 0.023717 0.809440
0.119663 -0.103654 0.959552
0.110356 0.041966 0.367194
0.276592 -0.254098 0.812790
0.283079 -0.180605 0.803266
0.114849 -0.320391 1.015069
0.166750 -0.210194 0.973822
0.167588 -0.327292 0.776873
0.141752 -0.331149 1.353512
0.127256 0.192870 1.558937
-0.389250 -0.147026 0.711957
0.343650 -0.249243 0.793055
0.109256 -0.039221 0.836138
0.098491 -0.190502 1.098755
0.109754 -0.384709 1.075922
0.135080 -0.246806 1.006125
0.194612 -0.151030 1.325888
0.034948 -0.288671 1.423187
0.068354 0.035990 0.283759
0.293615 -0.151005 0.796390
-0.142428 0.043961 0.356825
-0.432834 -0.164108 0.795433
-0.138090 -0.480843 1.691667
-0.160262 -0.212554 0.669748
0.198431 0.001972 0.395451
-0.133634 -0.107386 0.303823
-1.119108 -0.977356 4.248344
-0.105529 0.036207 0.314065
0.103466 0.037561 0.386107
0.001170 0.033518 0.131242
0.392790 -0.019174 0.738566
0.283920 -0.132965 0.725874
0.313194 -0.223793 0.800649
-0.150789 -0.067644 0.438630
-0.130463 0.005919 0.304961
0.211266 -0.001207 0.427234
0.144174 -0.191170 0.819411
0.012454 0.053399 0.217049
-0.209656 -0.054517 0.720475
-0.213339 -0.037643 0.755907
-0.061450 0.012819 0.535436
-0.087649 0.047832 0.190705
-0.014180 0.041399 0.191927
0.267328 0.015250 0.497421
0.073532 0.025413 0.337628
0.447790 -0.258230 0.919680
0.374314 -0.221290 0.846815
0.158102 -0.190781 0.938644
0.049543 -0.040690 0.842463
0.178168 -0.182165 0.799920
0.346676 -0.238351 0.835338
-0.139105 -0.175154 0.552099
-0.131557 0.003572 0.569759
0.348786 -0.256265 0.807431
0.353364 -0.160472 0.728175
0.204692 -0.001994 0.637848
0.205325 -0.002500 0.654300
0.528042 -0.143184 0.669210
0.523213 -0.193681 0.688908
0.284020 -0.220285 0.833734
0.335378 -0.255315 0.841501
0.157489 -0.257175 0.946520
0.171223 -0.393112 0.981380
0.161548 -0.278287 0.970770
-0.105403 0.046666 0.185930
0.542339 -0.204238 0.700331
0.367838 -0.017632 0.722585
0.208555 -0.000068 0.623351
-0.208471 0.039923 0.371978
0.300976 -0.218486 0.774420
0.158554 -0.271340 0.953091
0.158665 -0.258170 0.947831
0.103863 -0.347167 0.980278
-0.001418 0.008790 0.563171
0.190687 -0.005295 0.438786
0.151188 -0.299719 0.921338
0.082569 -0.091910 0.900653
0.250341 -0.226304 0.782241
-0.059124 0.047878 0.152976
0.138147 -0.284435 1.021297
0.375722 -0.246790 0.822436
0.255776 -0.127188 0.612457
0.139892 -0.210427 1.190646
-0.100337 0.041976 0.246597
-0.160826 -0.108911 0.524872
-0.003522 -0.047314 0.862020
-0.194540 0.036753 0.347647
-0.275429 0.036660 0.478324
0.046227 0.028208 0.320324
-0.112565 0.036877 0.315035
-0.112041 0.034417 0.315414
-0.111152 0.038844 0.292484
0.170530 -0.323550 1.014368
0.134233 -0.104360 0.904630
0.050623 -0.272099 0.848934
0.262738 -0.235049 0.808240
-0.045640 0.039256 0.236682
0.046423 -0.208743 0.916684
0.174411 -0.314246 0.851778
0.261790 -0.277339 0.851692
-0.050184 -0.503070 1.308096
0.138881 -0.204146 1.168904
-0.016903 0.035586 0.264055
-0.168939 -0.110478 0.375575
0.000875 0.036666 0.286093
-0.129003 0.003610 0.302360
-0.005060 0.039397 0.200207
-0.077619 0.038349 0.249099
0.043013 0.036961 0.242880
-0.007315 0.039570 0.184573
-0.084847 0.039450 0.229179
0.347832 -0.237698 0.852723
-0.578508 -0.001556 0.917771
0.052506 -0.221713 0.960621
-0.344875 -0.161718 0.816430
-0.115810 -0.061843 0.520079
0.157804 -0.196030 0.882139
0.023154 0.005578 0.536490
0.151029 -0.218251 0.925789
-0.152259 -0.026878 0.696942
-0.194831 -0.130725 0.863934
-0.408506 -0.247327 1.297152
0.307652 -0.228988 0.825171
0.015786 0.081930 0.743253
0.142872 -0.224724 1.038048
0.207928 -0.002662 0.411625
-0.129984 -0.093046 0.296796
0.053455 -0.301044 0.857545
-0.169946 -0.207873 0.736916
0.235202 -0.197887 0.771073
0.338770 -0.231437 0.832372
0.350412 -0.197576 0.705600
0.246274 0.003904 0.588943
-0.005444 -0.046045 0.864824
0.129155 -0.039364 0.839271
-3.626751 -3.610735 12.407195
-0.103001 0.042964 0.253912
-0.116440 -0.060996 0.315192
0.059013 0.320512 1.197520
-0.118767 -0.071838 0.319486
0.162365 -0.235601 0.873663
0.309217 -0.191275 0.854557
0.056991 0.237453 1.244316
0.322773 -0.237932 0.753362
0.076313 0.027271 0.306755
0.243532 -0.006799 0.584255
0.158973 -0.281080 1.131450
-0.172330 -0.444580 2.149167
0.128280 -0.272994 0.953978
-0.346330 -0.252441 1.286563
0.115505 -0.254174 1.035553
-0.100501 -0.251982 1.193120
0.079611 0.487636 2.131616
0.348035 -0.219021 0.837522
0.250175 -0.156643 0.796416
-0.005417 0.040545 0.204107
-0.084528 0.045954 0.184132
-0.061624 0.047734 0.149738
0.049788 -0.043722 0.840470
0.364030 -0.237195 0.892040
0.168027 -0.318961 1.001641
-0.136995 -0.472045 1.666446
0.049568 0.014658 0.439119
-0.124321 0.002174 0.745665
-0.140276 -0.165977 0.556276
0.209025 0.002705 0.417457
-0.111713 0.015282 0.313166
-0.060155 0.049801 0.158902
-0.056584 0.046311 0.147051
0.128494 -0.258257 1.203641
0.519252 -0.150750 0.698434
0.410943 -0.180559 0.742861
0.252444 -0.131357 0.723641
-0.234619 -0.141686 0.548966
-0.061203 0.047357 0.147982
0.076475 -0.091639 0.919161
0.161092 -0.225010 0.904933
-0.123426 -0.075121 0.334312
0.045573 0.027679 0.318888
-0.066891 0.032336 0.302182
-0.066493 0.032112 0.300945
-0.246428 -0.272500 0.891930
-0.035071 0.042537 0.178350
-0.203292 -0.076021 0.554528
0.026215 0.041642 0.230254
-0.059813 0.046381 0.144779
-0.155987 -0.096774 0.350378
0.044535 0.038759 0.254610
0.076670 0.042448 0.200727
0.077260 0.043060 0.202217
-0.321083 0.035984 0.612202
-0.080168 0.043531 0.175155
-0.023716 0.047526 0.164138
0.009841 0.044611 0.184368
-0.012649 0.040035 0.157753
-0.116675 0.021529 0.301220
0.290565 -0.250801 0.830028
0.181232 -0.187541 0.789486
-0.574062 0.002798 0.940284
0.329128 0.129458 0.907073
-0.301831 0.096081 1.074149
0.034314 0.022262 0.533448
-0.183385 0.011352 0.709093
0.056807 0.014861 0.437426
0.090470 -0.247438 0.913046
0.165914 -0.013098 0.810004
0.320594 -0.229068 0.824428
0.180045 -0.301093 0.897317
0.082558 0.030304 0.309626
-0.123489 -0.077232 0.277655
-0.106734 0.035964 0.324100
-0.036968 0.044547 0.185451
0.061435 -0.315667 0.885777
-0.139006 -0.073824 0.330678
-0.046265 0.039560 0.236963
0.011901 0.162784 0.615428
0.023259 0.039745 0.217754
0.278127 0.110310 0.768502
-0.101382 0.042053 0.246856
0.188530 0.072110 0.549519
-0.100705 0.040929 0.268690
0.035010 0.089605 0.359219
0.013114 0.055664 0.231605
0.076612 0.027981 0.295188
0.541580 -0.203775 0.699950
0.288738 -0.132799 0.724245
0.192343 -0.004591 0.701607
-0.143869 -0.017716 0.575496
0.105020 0.044774 0.239915
-0.137759 -0.085437 0.311182
0.125816 -0.089393 0.884745
0.399109 -0.261024 0.875839
-0.308713 -0.203132 0.969757
-0.392219 -0.169165 0.651806
-0.112721 0.034456 0.379226
-0.259586 -0.260616 0.815645
0.255863 -0.219447 0.794103
0.159730 -0.500581 1.357808
-0.822017 -0.418055 1.524234
0.026363 0.041449 0.185998
0.129141 -0.367270 1.472975
0.025645 0.040152 0.181174
0.039523 -0.226714 1.131750
0.108820 -0.182922 1.021339
-0.014077 0.044822 0.174452
0.046789 -0.252066 0.797027
-0.136538 -0.009225 0.745029
-0.001989 0.032642 0.266250
-0.004960 0.034981 0.210429
0.363783 -0.178357 0.934126
0.364305 0.154096 0.826078
0.536377 -0.140587 0.702259
0.519316 -0.025701 0.708869
0.058412 0.003445 0.605865
0.238120 -0.199148 0.772634
0.060182 0.089031 0.473696
0.158908 -0.197810 1.004792
-0.484650 -0.234152 0.919194
-0.014078 0.044133 0.171998
-0.292661 0.032294 0.574654
0.047522 0.029772 0.329655
0.224092 0.002324 0.537226
0.044512 0.038282 0.252801
0.005411 0.042498 0.290816
0.004796 0.019907 0.426425
-0.112437 0.003688 0.313333
0.212160 -0.015476 0.702249
0.283447 -0.257276 0.825955
-0.130607 -0.489794 1.614617
0.198117 -0.266984 0.936393
-0.082589 0.045192 0.180179
0.050373 -0.090100 0.900086
0.252698 0.107576 0.566807
0.321531 -0.251587 0.847819
0.233164 -0.244777 0.766581
0.217942 -0.009578 0.439716
-0.084268 0.042984 0.195887
0.546410 -0.147287 0.669818
0.116503 -0.293113 1.025486
-0.220785 -0.046882 0.718564
0.172208 -0.186844 0.909269
-0.115714 -0.058877 0.313586
0.141613 -0.423989 1.567183
0.279944 -0.144885 0.678655
0.147592 -0.163554 0.888002
0.246046 -0.090807 0.531828
0.191978 -0.317709 1.006436
0.167011 -0.265958 0.860044
0.177472 -0.174578 0.797029
0.016545 0.006364 0.640327
0.276977 -0.224705 0.791238
0.035263 -0.475042 1.509626
-0.388259 -0.290895 1.536015
0.044687 -0.180988 0.965150
0.097961 -0.305920 0.930199
0.125271 -0.347177 1.094052
0.097781 -0.301649 0.919936
0.213847 0.013674 0.448710
-0.267937 -0.037964 0.851831
0.315186 -0.236465 0.789187
0.213216 0.082312 0.652221
0.207057 0.017314 0.423980
0.164925 -0.006642 0.697818
-0.001041 0.359076 1.343658
0.261236 -0.146041 0.747266
-0.409701 -0.250706 1.297175
-0.108066 -0.012830 0.303411
0.020950 0.036999 0.207316
-0.005375 0.039359 0.200391
-0.102641 0.022557 0.221346
0.312623 -0.235900 0.767505
0.273129 -0.216621 0.835112
-0.004019 0.070357 0.333844
-0.128924 0.002950 0.552432
0.120370 -0.300070 1.046281
0.222104 -0.165872 0.733229
0.523396 -0.145181 0.667478
0.541513 -0.144910 0.661284
0.544005 -0.146682 0.664438
0.049507 -0.301961 0.807154
0.032988 0.021432 0.519498
0.000719 0.033991 0.314325
-0.144781 -0.086068 0.640885
-0.018234 0.026710 0.338031
-0.017232 0.026779 0.339603
-0.385918 -0.210283 0.892836
-0.173455 -0.096768 0.663835
-0.217085 0.021244 0.574673
-0.148510 -0.083676 0.579877
-0.457353 -0.281300 1.018236
0.298014 -0.144232 0.770005
-0.069711 0.033117 0.340611
-0.016045 0.027723 0.316616
-0.254915 0.006426 0.779098
0.051213 0.014054 0.425442
0.259979 -0.255451 0.796995
0.333582 -0.253333 0.758857
0.071048 -0.537376 1.612432
0.366124 -0.267805 0.858443
0.053620 -0.330061 0.831026
0.053661 -0.217641 0.972194
-0.112937 -0.041011 0.308226
0.213098 0.012586 0.410280
-0.112683 0.034147 0.316897
0.075431 -0.596776 1.771763
-0.013186 0.035987 0.403247
-0.081379 0.044504 0.178322
0.101457 -0.326560 1.139069
0.171343 0.068878 0.483491
-0.112764 0.032058 0.318215
0.028624 0.051209 0.185149
0.001244 0.044707 0.160205
0.187466 0.071756 0.583344
0.162935 -0.202355 0.773727
0.172463 -0.174854 0.771543
0.112455 -0.227423 1.032658
0.135304 -0.257856 1.018550
0.105676 -0.262665 0.856083
-0.257755 0.002171 0.748435
-0.360661 -0.303596 1.453164
0.219076 0.020104 0.412277
0.151388 -0.310443 1.421760
-0.532039 -0.378224 1.799610
0.155893 -0.222449 0.944400
-0.105791 -0.055269 0.319119
0.171755 -0.253306 0.779828
-0.176711 -0.196889 0.682355
-0.100680 0.028729 0.431515
-0.099472 0.027887 0.371432
0.027652 0.092856 0.581687
0.040168 -0.457489 1.578218
-0.120512 0.000507 0.553563
0.054050 0.050120 0.146636
0.160437 -0.200585 0.949373
0.172788 -0.303320 0.859607
0.017535 0.085198 0.660496
0.206918 -0.119550 0.695389
0.044282 0.027600 0.316602
-0.730843 -0.476535 2.460531
0.160018 -0.210553 0.968975
-0.399725 -0.500698 1.768686
0.010362 0.071215 0.488905
0.057206 -0.271821 1.031478
0.323671 -0.249135 0.817737
-0.157636 -0.085841 0.344905
0.291546 -0.213669 0.826722
0.334374 -0.201337 0.824048
0.010613 0.094376 0.449244
0.142498 -0.191980 1.042232
0.119423 -0.296675 0.915502
0.142505 -0.249378 1.195223
0.004112 0.030142 0.304606
0.108023 -0.362521 1.282077
-0.345708 -0.426575 1.529358
0.235783 -0.135585 0.759765
0.041262 -0.175750 0.815802
0.050502 -0.236428 0.884973
-0.113446 0.036967 0.315739
0.079887 0.027401 0.354381
-0.208190 0.039658 0.371544
-0.335806 -0.215545 0.786190
0.172013 -0.225940 0.785252
-0.358898 -0.311134 1.491430
0.042203 0.355584 1.685061
-0.394589 -0.336038 1.619763
-0.000076 0.033381 0.501063
0.167192 -0.006277 0.716654
0.520393 -0.026219 0.707347
-0.221642 -0.157198 0.499659
-0.116477 -0.457817 1.457736
-0.136915 0.018611 0.398252
-0.169913 0.025288 0.459447
0.177478 -0.226930 0.809382
0.085641 -0.255641 1.063053
0.127960 -0.050676 0.941383
-0.074762 0.018455 0.539417
-0.257291 -0.472391 1.252608
-0.129929 0.022626 0.555315
0.041229 0.096090 0.407007
0.055714 -0.334192 0.883569
-0.083968 0.042963 0.195751
0.041487 0.035545 0.237074
0.052407 0.027870 0.322839
0.161534 -0.004135 0.711811
0.035688 0.158769 0.692451
-0.273234 -0.054732 0.892491
-0.141585 -0.009865 0.765096
0.016915 0.149956 0.711251
0.260760 -0.221441 0.798738
0.164353 -0.042633 0.864910
-0.007691 0.033571 0.979602
-0.361764 -0.478826 1.572433
0.048430 -0.212740 0.972643
0.363692 -0.264664 0.920866
-0.138342 0.026332 0.715840
0.038155 0.015956 0.431570
0.166654 -0.012795 0.699429
0.178161 -0.004916 0.699119
0.203754 -0.002884 0.649850
0.525424 -0.137242 0.720985
0.307994 -0.134803 0.726893
0.184171 -0.004680 0.700476
0.161223 -0.004629 0.710842
0.528063 -0.017456 0.729613
0.167889 -0.156831 0.876084
0.119796 -0.107248 0.840875
0.197935 -0.004450 0.645325
0.205172 -0.002288 0.648804
0.201991 -0.003270 0.646395
0.206232 -0.002093 0.652597
0.201883 -0.006536 0.698545
0.039466 -0.287431 0.964678
0.250371 -0.161895 0.794628
0.088099 -0.022540 0.800009
-0.197258 -0.002551 0.734872
0.271106 -0.221487 0.839433
0.194022 -0.285156 0.891885
0.132052 -0.038127 0.845556
0.018338 0.019738 0.910947
0.170064 -0.006615 0.694277
0.248339 -0.142130 0.764704
-0.249253 -0.195670 0.900934
0.166240 -0.008125 0.696099
-0.105999 0.016862 0.645109
-0.371592 -0.264457 1.349174
0.086004 -0.500941 1.527220
-0.369971 -0.285662 1.362847
0.058562 0.024480 0.339373
0.064050 0.229450 1.526017
-0.402079 0.021037 0.843176
0.041769 -0.507482 1.542320
0.304008 -0.227030 0.816611
0.530991 -0.134872 0.693486
0.277735 -0.021295 0.727133
0.156234 -0.116162 0.842978
0.049656 -0.207526 0.898808
0.078328 -0.297837 1.063416
0.240655 -0.019585 0.573236
-0.492991 -0.222346 0.844801
-0.170678 -0.093299 0.720289
-0.075247 0.017590 0.540722
-0.000474 0.020632 0.689222
0.056010 -0.109824 0.933738
-0.346560 -0.201674 1.275800
0.082674 -0.186405 0.931880
0.411553 -0.070371 0.649739
0.097845 -0.243365 0.962857
0.154132 -0.178259 0.908132
-0.106391 0.016856 0.586406
0.853387 -0.182697 0.720177
0.143589 -0.308089 0.876427
-0.396025 -0.281770 1.073093
0.162598 -0.255199 0.836492
0.173483 -0.178766 0.780473
0.224617 -0.217263 0.746889
0.126572 -0.095587 0.836832
0.036858 -0.355487 1.592099
-0.103508 0.034189 0.316871
-0.016007 0.032914 0.255767
0.540352 -0.023265 0.712589
0.168818 -0.004221 0.710015
0.163712 -0.013185 0.806469
-0.236665 -0.097497 0.613483
0.061400 0.033322 0.347092
-0.004033 0.072598 0.343709
-0.122439 0.001597 0.558223
0.390221 -0.254894 0.858752
-0.116585 0.038262 0.318688
-0.126864 0.001500 0.744197
0.282478 -0.246041 0.809526
0.167553 -0.281272 0.869753
0.526178 -0.142524 0.718807
-0.250631 0.010706 0.721172
-0.185059 -0.105193 0.709903
-0.342873 -0.163245 0.806779
-0.289629 0.090273 1.038598
0.056555 0.014961 0.436820
0.125699 -0.345236 1.090883
0.049421 -0.245031 0.949650
-0.139403 -0.196765 0.769818
-0.104031 0.013298 0.500509
-0.099775 0.028679 0.399243
-0.069205 0.032256 0.337033
0.382799 0.146664 1.148039
-0.137475 0.031726 0.654029
0.318947 -0.165146 0.752229
0.052240 -0.271810 0.864376
-0.298532 -0.099009 0.833243
0.249935 -0.130913 0.720718
0.110411 -0.312822 0.850231
0.527929 -0.018470 0.731004
0.160452 -0.148895 0.838674
0.533303 -0.197018 0.691433
0.124212 -0.045428 0.844639
0.286027 -0.132505 0.725544
0.168348 -0.005602 0.717867
0.157826 -0.142590 0.842332
0.263634 -0.253642 0.830145
-0.119229 0.023274 0.301655
0.107742 -0.295669 0.952683
-0.109983 -0.000464 0.694799
0.247590 -0.135355 0.726280
0.047516 0.180022 1.147326
-0.438540 -0.227060 1.436946
-0.421127 -0.456287 1.495504
0.144043 -0.292778 0.895191
0.115085 -0.274336 1.005799
-0.184987 -0.269863 0.992362
-0.117437 -0.093555 0.521225
0.137440 -0.420460 1.175171
0.205839 -0.001974 0.644565
-0.003530 0.061564 0.291783
-0.067392 0.035873 0.323432
-0.096574 -0.011038 0.278041
0.126832 -0.297256 0.956465
0.225889 -0.020836 0.713118
0.051822 -0.278321 0.863159
0.002935 0.016047 0.362284
-0.439948 -0.460411 1.439963
-0.013402 -0.042148 0.840979
-0.004560 0.049605 0.768574
-0.081200 0.021927 0.425191
0.134287 -0.042348 0.854277
0.126929 -0.132058 0.870473
0.142747 -0.096490 0.838132
0.313588 -0.226789 0.877552
0.292216 -0.131645 0.730230
-0.016336 0.028620 0.320377
-0.359762 -0.459777 1.525391
0.313096 0.120911 0.834942
-0.214483 -0.024811 0.789692
-0.716499 -0.438351 1.814838
0.064947 -0.279192 1.099601
-0.406284 -0.288274 1.094433
0.243128 -0.229480 0.749853
0.142118 -0.189138 1.035826
0.122133 -0.582633 1.963968
0.051950 -0.195067 1.027157
-0.320006 -0.151998 0.758320
0.165058 -0.206218 0.769592
-0.007401 0.021348 0.462053
-0.338326 -0.003315 0.824633
0.172144 -0.173573 0.773365
0.061916 0.009092 0.516241
-0.016484 0.026934 0.339472
0.262941 -0.147010 0.792600
0.282537 -0.122933 0.722894
0.129642 -0.153247 0.881238
0.013315 -0.004167 0.719120
0.144827 -0.077135 0.837768
0.526302 -0.017128 0.723710
0.267530 -0.140452 0.736246
0.156276 -0.103035 0.852529
0.158613 -0.120656 0.843333
0.289705 -0.210395 0.816768
-0.131465 -0.495275 1.355823
0.050897 -0.258894 0.844916
0.186890 -0.004769 0.700624
0.187417 -0.007297 0.633920
0.207683 -0.001990 0.659697
0.177174 -0.004568 0.700130
0.205940 -0.001451 0.634796
0.203800 -0.004182 0.678728
0.204676 -0.003626 0.671757
0.544084 -0.211144 0.700830
0.547139 -0.150793 0.670621
0.493957 -0.137388 0.659544
0.674351 -0.196593 0.679044
0.388996 -0.175044 0.728308
0.149798 -0.012694 0.803555
0.148052 -0.155125 0.880748
0.214185 -0.005515 0.702488
0.140872 -0.059584 0.856153
0.208336 -0.003045 0.673770
0.146774 -0.064489 0.839999
0.389847 -0.010972 0.707104
0.105460 -0.307483 0.949561
0.073034 -0.427983 1.395040
-0.640108 -0.589480 2.085419
0.536648 -0.147907 0.701649
0.206039 -0.001647 0.640848
0.206397 -0.002698 0.665841
0.209163 -0.000368 0.636342
0.166606 -0.012310 0.734991
0.175891 -0.005516 0.698087
0.161111 -0.011461 0.774165
0.125820 -0.191728 0.903245
0.056141 0.000370 0.624590
0.189759 -0.288316 1.016858
-0.259083 0.011437 0.737467
0.051352 -0.276202 0.858993
0.150732 -0.249692 0.914918
0.071423 0.019763 0.502566
0.032391 0.019639 0.489789
-0.109617 0.032283 0.383488
0.000529 0.033613 0.364222
-0.115887 0.018290 0.318894
0.171565 -0.009868 0.804014
0.133945 -0.174543 0.919375
0.127570 -0.145706 0.849235
0.055160 -0.302364 0.864370
-0.417278 -0.238008 1.472071
0.609283 -0.091917 0.675549
0.796257 -0.148853 0.722658
0.178939 -0.222097 0.796111
0.090490 -0.259126 0.906313
-0.015476 0.034123 0.270525
0.116574 -0.260584 0.909318
0.142115 -0.239963 0.893085
-0.120309 -0.029593 0.699146
-0.018772 0.055344 0.632035
0.013657 0.023128 0.744729
0.105647 -0.214917 0.992000
-0.967431 -0.731013 2.799955
-0.439538 -0.282162 1.282289
-0.426836 -0.468769 1.536204
0.037794 -0.481684 1.484200
-0.338793 -0.406015 1.538144
-0.128222 -0.308524 1.095620
0.097330 -0.227551 0.957039
0.162018 -0.060241 0.852354
0.132121 -0.537223 1.703871
-0.010608 0.038082 0.684919
0.145657 -0.278719 0.900156
-0.326117 -0.208217 0.748702
0.299616 -0.176425 0.815153
0.239397 -0.166457 0.783406
-0.372216 -0.027640 0.879204
-0.098880 0.021435 0.448766
0.058112 0.002931 0.603262
0.212889 -0.184235 0.709998
-0.124113 -0.088363 0.694245
-0.103397 0.013245 0.498936
0.057774 0.002854 0.603621
0.206419 -0.015121 0.698068
0.166647 -0.205252 0.950210
0.160036 -0.090899 0.859654
0.143406 -0.290292 1.385441
0.129176 -0.340506 1.297454
0.087226 -0.485980 1.529011
0.041563 0.018017 0.679497
-0.364777 -0.430001 1.619929
-0.394981 -0.466533 1.743250
-0.413926 -0.285380 1.365787
0.050047 0.126187 0.941026
-0.133228 -0.001727 0.520689
-0.382192 -0.270251 1.371572
-0.115428 -0.317217 1.319879
-0.402491 -0.311749 1.418531
0.159154 0.325304 1.909742
-0.104058 -0.131029 0.951539
0.112419 -0.394144 1.390572
0.220879 -0.174444 0.728260
0.121967 -0.265246 0.954131
-0.154776 -0.000157 0.700404
-0.120518 -0.004173 0.495349
0.106217 -0.309838 1.357010
-0.065445 0.014041 0.503706
-0.076721 0.019915 0.546676
-0.016549 0.019533 0.405309
-0.004013 0.021077 0.392604
-0.004812 0.018496 0.384213
0.530023 -0.149777 0.719231
0.533163 -0.144859 0.721211
0.570308 -0.217222 0.669149
-0.457165 -0.392047 1.447619
0.042019 -0.458526 1.565103
-0.361317 -0.282478 1.353040
-0.413137 -0.450212 1.477112
-0.409831 -0.329709 1.433747
0.049679 -0.038310 0.833612
-0.174238 0.005079 0.704175
-0.272423 0.088214 0.958171
0.158564 -0.146345 0.835374
0.265150 -0.130654 0.723112
0.139454 -0.110116 0.855930
0.195007 -0.004404 0.702897
0.130383 -0.038198 0.842015
0.145846 -0.038426 0.884008
-0.216420 -0.034039 0.712694
0.266309 -0.206813 0.794224
0.116076 -0.099967 0.945025
-0.347396 -0.228220 0.835234
-0.316131 -0.179942 0.749176
-0.521162 -0.256940 1.351101
0.365606 -0.155085 0.751194
0.300168 -0.140732 0.736174
0.156807 -0.174284 0.890662
0.117228 -0.094813 0.940519
0.046860 -0.044567 0.834562
0.133684 -0.162829 0.879297
0.149596 -0.146972 0.869155
0.119867 -0.048283 0.838554
0.146770 -0.107667 0.839797
0.270021 -0.137187 0.733070
0.389403 -0.134514 0.725091
0.130856 -0.105727 0.856868
0.166475 -0.186045 0.940320
0.159633 -0.117651 0.824672
0.046239 0.008735 0.540751
-0.043102 0.011597 0.537753
-0.418121 -0.287596 1.394429
0.159524 -0.226784 0.857178
0.068841 -0.253565 0.836588
-0.167676 -0.090040 0.715611
-0.107492 0.020123 0.542263
-0.122696 0.006001 0.507502
0.062098 0.014496 0.452807
-0.114693 0.037827 0.318431
-0.464765 -0.283885 1.212831
-0.327097 -0.175432 1.224806
-0.353008 -0.030409 0.840592
-0.179680 -0.142856 0.691531
-0.182134 0.023862 0.573716
0.513634 -0.019905 0.726469
0.029767 0.007363 0.557081
-0.076315 0.011768 0.559160
-0.091591 0.006513 0.608682
0.073227 -0.240272 1.082301
0.138998 -0.003617 0.688724
0.251070 -0.126985 0.728216
0.264931 -0.135161 0.729417
0.169255 -0.004400 0.700053
0.135219 -0.001492 0.693635
0.018467 0.017845 0.428468
-0.109451 0.030212 0.455121
0.248170 -0.176012 0.777709
0.054100 0.030022 0.331014
0.164055 -0.235422 0.963991
-0.306315 -0.107732 0.806668
0.143048 -0.333546 1.206151
-0.289088 -0.194757 1.033321
-0.362529 -0.194782 0.973481
0.282058 -0.224867 0.814877
-0.356759 -0.487048 1.573830
-0.167196 -0.105829 0.800639
-0.080761 0.022955 0.284651
0.138102 -0.730968 3.276631
0.526184 -0.152394 0.720211
0.181187 -0.243209 0.882581
0.283784 -0.239882 0.822329
0.169490 -0.165883 0.770327
0.031405 0.006039 0.679243
-0.157600 0.003292 0.657257
0.136214 -0.073286 0.896460
0.126348 -0.246740 0.966673
-0.191743 -0.024566 0.741683
0.132593 -0.097792 0.850182
0.156102 -0.112242 0.845523
-0.214008 -0.048819 0.755008
-0.166090 -0.078530 0.710094
-0.089497 0.008063 0.569843
-0.018116 0.011505 0.525246
-0.051730 0.010772 0.557390
0.285619 -0.141858 0.735657
0.208076 -0.000391 0.627429
0.391323 -0.023812 0.731316
0.392502 -0.110129 0.706685
0.393336 -0.023234 0.733166
0.420868 -0.023845 0.712166
0.383833 -0.174194 0.726223
0.387070 -0.128112 0.725711
0.118929 -0.151572 0.860182
0.111200 -0.134260 0.820671
0.382660 -0.128493 0.724512
0.183886 -0.004561 0.700539
0.546322 -0.150136 0.664225
0.191401 -0.003353 0.704626
0.204530 -0.003682 0.673335
0.554525 -0.178834 0.686746
0.520264 -0.168548 0.683014
0.191170 -0.004500 0.702084
-0.249132 -0.085840 0.714603
0.207370 -0.001863 0.656751
0.388694 -0.128737 0.726391
0.135250 -0.101165 0.852890
0.295876 -0.148698 0.751337
-0.017246 0.015268 0.450569
-0.088752 0.024576 0.396585
-0.017893 0.009587 0.521549
-0.108968 0.003719 0.491191
0.162674 -0.197971 0.865586
0.084534 0.275422 1.217024
0.049572 -0.055718 0.842501
-0.166613 -0.214033 0.830349
-0.120507 -0.086683 0.688174
-0.093328 0.015129 0.516949
0.237080 0.544782 2.081983
0.271294 -0.780895 2.723485
-0.440868 -0.284889 1.436577
0.133974 -0.103691 0.838708
-0.043697 -0.458529 1.335442
0.017409 0.017180 0.424308
0.057663 0.015700 0.441265
-0.241835 -0.035890 0.785148
0.065966 -0.192434 0.759129
0.103769 -0.246374 0.978383
0.111871 -0.157872 0.880086
0.162580 -0.172398 0.851659
0.162993 -0.036550 0.807302
-0.306283 -0.027095 0.769535
-0.096566 -0.282002 1.287696
0.142372 -0.384242 1.537656
0.060640 0.046458 0.796320
-0.115078 -0.094489 0.674564
-0.461714 -0.376710 1.393965
-0.445960 -0.359551 1.359681
0.164415 -0.019177 0.807723
0.114906 -0.247197 0.910079
0.116038 -0.232675 0.932920
-0.019180 0.005012 0.590632
-0.195226 -0.009882 0.767548
-0.109471 0.010770 0.692373
-0.086062 0.007275 0.550921
0.526149 -0.130711 0.700019
-0.021487 0.018158 0.421465
0.003150 0.017196 0.416099
-0.078592 0.020876 0.420823
-0.145719 -0.070980 0.547803
0.392648 -0.173293 0.751765
0.541741 -0.197547 0.684581
0.209475 -0.001115 0.648399
0.135104 -0.040617 0.800425
0.125883 -0.045842 0.835497
0.148042 -0.065207 0.842040
-0.104768 -0.089267 0.942198
0.158736 -0.005522 0.708013
0.224803 -0.012762 0.712714
-0.063886 0.006566 0.698620
0.044124 0.000266 0.627324
0.103725 0.000382 0.588286
0.102840 0.000044 0.587655
0.026604 0.005803 0.660850
0.162282 -0.009132 0.744673
0.150230 -0.199654 0.923391
0.144551 -0.186240 0.885060
0.138469 -0.102373 0.861157
0.014491 0.016106 0.493624
0.112770 -0.056924 0.826747
0.082453 -0.238661 0.995517
0.142887 -0.238931 1.067290
