ply
format ascii 1.0
element vertex 1655
property float x
property float y
property float z
end_header
-0.777849 0.254859 1.998371
0.012230 0.121575 0.369506
0.052505 0.058781 0.560596
0.072070 0.032501 0.515887
0.023125 0.008095 0.170356
0.770679 0.230097 1.930325
0.085900 0.020580 0.250245
0.037519 0.123747 0.504995
-0.080773 0.031943 0.206266
-0.953438 0.410816 2.370439
-0.126629 0.027153 0.322225
-0.111951 0.101167 0.603718
-0.187776 0.060383 1.230957
-0.112268 0.117682 0.404385
-0.099420 0.156646 0.487857
0.024695 -0.568969 2.274387
0.021083 -0.020675 0.576994
0.013360 0.012916 0.652960
-0.142689 -0.104447 0.548628
-0.020097 -0.077682 0.460897
-0.020555 -0.063447 0.522984
-0.019480 -0.085599 0.447443
-0.217100 -0.012886 1.359863
0.042023 0.031199 0.650505
0.012513 -0.002500 0.093210
0.032811 0.042302 1.148064
0.117032 -0.002863 0.496760
0.060823 0.002138 0.454842
0.016179 0.043458 0.629999
0.016057 -0.036869 0.494495
0.006997 0.048323 0.693433
-0.061955 -0.032180 1.110119
-0.045447 -0.087793 0.742439
-0.110465 0.095908 0.571538
0.185551 0.120131 0.502494
-0.185799 -0.055297 0.890273
0.011264 0.094504 0.819208
-0.254124 -0.209538 0.969521
0.155021 0.039795 0.476491
0.121909 0.043935 0.476826
0.437870 0.086697 1.729410
0.124178 0.027971 0.489701
0.065632 -0.016351 0.487053
0.056242 0.006992 0.541787
0.055068 -0.012862 0.522267
0.058221 -0.003153 0.556539
0.037474 -0.042178 0.526313
0.031245 -0.011128 0.550267
0.043789 0.084451 0.776624
0.029742 -0.021253 0.567011
0.033561 0.044932 0.677180
0.026152 0.019456 0.586423
0.011777 -0.019243 0.554075
0.015246 0.000761 0.602906
0.009219 -0.010764 0.613451
0.007939 -0.022804 0.655030
0.010216 0.074542 0.952626
-0.001463 0.111142 0.526611
-0.022097 -0.101305 0.462293
-0.019264 -0.059119 0.487051
-0.055783 0.139823 0.479709
-0.024889 0.021497 0.171879
-0.216399 0.009197 1.371626
-0.095497 0.140611 0.498259
-0.341983 0.017019 0.856783
0.052014 0.126836 1.293015
-0.005595 0.088321 0.753270
0.015977 0.132291 0.392566
0.000387 0.092212 1.132585
-0.005467 0.098122 0.569895
0.087944 0.078871 0.231963
0.071837 0.115816 0.481839
0.052650 -0.061580 0.488714
0.059636 0.037185 0.588998
0.061121 0.053611 0.600594
0.047313 0.052477 0.666116
0.039712 0.069558 0.960623
0.007822 0.042900 0.788311
0.013029 0.116085 1.096411
0.003654 -0.002047 0.601370
-0.014871 0.052771 0.514133
0.088558 -0.022818 0.438566
-0.002064 0.128289 0.505782
-0.084837 0.126558 0.497950
-0.143055 -0.001656 0.473091
-0.178545 0.061915 0.410787
-0.212463 0.046991 0.487109
-0.278139 0.126395 0.557497
-0.324109 0.130243 0.611764
-0.169258 0.011458 0.551276
0.021731 0.020821 0.588998
-0.017203 -0.035785 0.506272
-0.154132 0.197007 0.556489
0.061166 0.075793 0.519830
-0.206531 0.061888 0.475597
-0.132742 0.177197 0.468666
-0.197683 0.122596 0.448037
-0.186013 -0.022277 0.421193
-0.197529 -0.072373 0.439202
-0.192010 0.060445 0.434809
-0.212995 -0.026165 0.479438
-0.175491 0.059505 0.443575
-0.222468 0.050181 0.504029
-0.184923 -0.023616 0.450000
0.011736 -0.017351 0.521173
0.012720 -0.019151 0.538597
-0.035186 0.146648 0.482289
-0.060955 0.150904 0.483687
-0.115818 0.047934 0.412890
-0.133385 0.076586 0.411922
-0.137839 0.122145 0.407086
-0.423466 0.206590 0.568180
-0.057794 -0.025370 1.101746
0.023327 -0.010518 0.536164
-0.245821 0.114929 0.504963
-0.150418 0.129095 0.393885
0.041091 -0.129527 1.101350
-0.062803 0.041354 0.196164
-0.104726 -0.070051 0.837650
-0.017985 -0.040658 0.513386
-0.018396 0.039307 0.663830
-0.017270 -0.046799 0.479093
-0.178812 0.002179 0.844210
0.014400 -0.051522 0.497368
-0.175596 0.022792 0.306843
-0.333530 0.067386 0.600205
-0.351174 0.109625 0.604300
-0.217631 -0.093771 0.512170
-0.161793 0.029646 0.541237
-0.029861 0.122771 0.861258
-0.340625 0.044672 0.595026
-0.349663 0.084254 0.954429
-0.344769 0.155900 0.595111
-0.144891 0.092557 0.510485
-0.399469 0.083921 0.998313
-0.335697 0.199793 0.586265
-0.114828 0.073428 0.394259
-0.182024 0.060689 0.595367
-0.146323 0.020784 0.478928
-0.016143 -0.000689 0.522150
0.016080 0.001368 0.548642
-0.031865 0.132147 0.451565
-0.006870 0.039790 0.630246
-0.198164 0.120876 0.446870
0.054786 -0.008430 0.515718
-0.276695 0.099526 0.777277
-0.361550 0.122569 0.620018
-0.323846 0.195509 0.595417
-0.158686 0.163027 0.463623
-0.184077 0.053377 0.420305
-0.389239 0.127355 1.001554
-0.179430 0.105947 0.408553
-0.321591 0.129102 0.634090
-0.030099 0.154644 0.511097
-0.222218 -0.041798 0.482932
-0.098358 0.075177 0.253175
-0.091447 0.070078 0.240164
-0.207245 0.153868 0.513670
-0.107589 0.042850 0.378952
0.028454 0.008871 0.561754
-0.016550 -0.018543 0.614178
0.033648 -0.051374 0.491241
-0.123575 -0.044819 0.586871
-0.210685 0.148858 0.585277
-0.174540 -0.014867 0.400630
-0.124419 0.077458 0.417197
-0.114523 0.073115 0.405108
0.046949 0.120532 0.496108
0.054195 -0.054180 0.489712
-0.017514 -0.037737 0.494718
-0.107583 0.040929 0.292736
0.040925 0.020684 0.635449
-0.016994 0.004547 0.534836
-0.005521 0.091819 0.479719
-0.078288 0.124276 0.543452
0.069113 0.107367 0.517683
-0.015653 0.039707 0.590164
-0.142719 0.115156 0.730421
0.019987 0.059487 0.594113
-0.189576 -0.022522 0.881882
0.040227 0.118607 0.495756
0.024226 0.135339 0.472445
-0.024466 0.148368 0.491651
-0.192247 -0.069432 0.875503
0.053860 0.037941 0.574177
0.036403 0.123490 0.503072
0.012807 -0.014288 0.574314
-0.081334 -0.050173 1.398337
-0.007757 0.044220 0.609236
-0.006036 0.038804 0.604576
-0.112506 0.096881 0.594878
0.055546 0.037575 0.601610
0.024418 0.137103 0.478165
-0.010624 0.148251 0.498429
0.030165 0.103500 0.515571
-0.110429 -0.033725 1.142054
-0.000506 0.119468 0.508883
0.080160 0.112714 0.413109
-0.201223 -0.004339 1.262240
0.090564 -0.022139 0.446117
-0.173813 -0.024058 1.077209
-0.139036 0.018698 0.687170
-0.030485 0.127259 0.508434
-0.132235 0.008789 0.652489
0.036082 0.005737 0.638448
-0.123470 0.085819 0.636994
-0.111912 0.116273 0.403799
-0.154519 0.048556 0.930634
-0.009373 0.020039 0.138591
-0.137616 -0.042384 0.654256
0.043312 -0.015031 0.565013
0.052954 -0.024282 0.505930
-0.182975 0.014082 0.595719
-0.101968 0.119300 0.544503
0.039866 0.020302 0.674259
0.027497 0.030440 0.676607
-0.002613 0.073241 0.669239
-0.080206 0.055799 0.561720
0.011188 0.145589 0.499027
0.021239 0.135530 0.473049
0.291296 0.015238 0.458649
0.207958 0.002577 0.466941
0.190464 0.032517 0.452054
0.171426 -0.007201 0.488434
0.292371 0.006149 0.436532
0.295814 0.007700 0.440673
0.297035 -0.017210 0.452580
0.207614 0.006318 0.474630
-0.681059 -0.069336 0.442406
-0.322231 0.059316 0.139940
-0.256781 0.065602 0.170167
-0.261857 0.059129 0.182914
-0.879138 0.131199 0.224347
-0.525951 0.109293 0.148656
-0.364455 0.110835 0.150093
-0.514297 -0.145987 0.200672
-0.565495 -0.113602 0.287197
-0.735026 -0.065131 0.261766
-0.669171 0.004025 0.221484
-0.922784 0.022483 0.491453
-0.015933 -0.004943 0.505876
0.042471 0.116878 0.505075
0.007361 -0.027190 0.485394
-0.229094 0.042135 0.146664
-0.266008 0.066377 0.172989
-0.185082 0.103571 0.248071
-0.186012 -0.038431 0.420940
-0.190845 0.011851 0.558025
-0.113423 0.170503 0.472893
-0.166560 0.049659 0.556476
-0.321466 0.059173 0.139300
-0.844284 0.015782 0.449216
-0.296735 0.089259 0.150328
-0.314762 0.071279 0.131690
-0.112034 0.059885 0.149735
-0.372426 0.069032 0.664702
-0.367710 -0.046377 0.902792
-0.085265 0.126257 0.496737
-0.131729 -0.056250 0.176370
-0.229973 0.074653 0.157473
-0.487428 -0.107950 0.247278
-0.700397 -0.029097 0.417019
-0.396871 0.120537 0.279641
-0.107992 0.055487 0.137519
-0.122674 0.054077 0.156139
-0.378508 0.114409 0.153690
-0.341309 0.040864 0.156948
-0.466571 -0.079486 0.238539
-0.503521 -0.083745 0.257311
-0.241490 0.027722 0.143834
0.022212 0.009254 0.608315
0.007870 0.000897 0.572787
0.011151 0.001214 0.554789
0.002380 0.012216 0.524024
-0.037743 -0.081944 0.720100
-0.792710 -0.065472 0.888145
-0.226358 0.041501 0.143827
-0.269553 0.068738 0.137653
-0.230858 0.063329 0.184652
-0.492804 0.234628 0.579174
-0.301270 0.046707 0.268706
-0.570343 0.282298 0.659735
-0.532209 -0.106394 0.274948
-0.839283 0.030946 0.489993
-0.799163 -0.002018 0.324614
-0.873891 0.011826 0.409098
-0.839193 -0.013898 0.309655
-0.540002 -0.084455 0.310635
-0.476005 -0.105440 0.245253
-0.249543 0.028286 0.144084
-0.473698 0.058876 0.631217
-0.446410 0.217976 0.595730
-0.154749 -0.046858 0.226302
-0.313716 -0.052414 0.377515
-0.649160 -0.102733 0.250086
-0.571179 -0.109054 0.323380
-0.355233 0.040540 0.599067
-0.184450 0.005422 0.419369
-0.340257 0.199311 0.592064
-0.383973 0.187468 0.481694
-0.343108 0.039588 0.619266
-0.811166 -0.131289 0.496633
-0.891064 -0.009536 0.366683
-0.350742 0.055244 0.628086
-0.341085 0.025388 0.417220
-0.343423 0.127530 0.595152
-0.402490 0.073958 0.255645
-0.639039 -0.032453 0.414947
-0.327897 0.160631 0.573769
-0.350279 0.217352 0.633671
-0.095247 -0.011795 0.140043
-0.455904 0.226325 0.531285
-0.870400 -0.003607 0.420446
-0.340283 0.101404 0.135401
-0.822373 -0.005891 0.310424
-0.289367 0.152179 0.819073
-0.194334 0.097573 0.538705
0.023113 0.013078 0.363984
-0.598622 -0.045086 0.697000
-0.340046 0.089770 0.182289
-0.344120 0.031051 0.214594
-0.566424 -0.076513 0.341505
-0.433951 0.176586 0.581607
-0.546763 -0.078046 0.497972
-0.353962 0.089036 0.287969
-0.720409 0.038180 0.264412
-0.719698 0.031108 0.253996
-0.450780 -0.095989 0.550077
-0.419942 0.197121 0.465296
-0.271524 0.030711 0.151100
-0.506194 -0.077192 0.241608
-0.762316 -0.013749 0.286686
-0.249627 0.077595 0.206843
-0.122532 -0.009945 0.408471
-0.157758 0.078340 0.425166
-0.144165 0.114944 0.421057
-0.133214 -0.012391 0.436767
-0.243245 0.068639 0.172449
-0.270337 0.030337 0.151654
-0.342001 0.068501 0.206949
-0.370516 0.057955 0.161814
-1.231703 0.037714 0.685152
-1.159305 0.023978 0.396302
-0.721363 -0.008744 0.259355
-0.375785 0.161265 0.267174
-0.324431 0.074616 0.259995
-0.968602 -0.015650 0.309300
-0.356689 0.230533 0.549084
-0.363538 0.240556 0.580323
-0.180814 0.072523 0.200492
-0.487967 -0.038481 0.246341
-0.284089 0.069522 0.163273
-0.255327 0.058742 0.179918
-0.356957 0.109609 0.257457
-0.630748 0.152121 0.165521
-0.917839 -0.000945 0.363050
-0.123054 -0.041165 0.197545
-0.529990 -0.094100 0.350931
-0.351958 0.011697 0.187509
-0.549414 -0.112324 0.644433
-0.448564 -0.095147 0.547786
-0.790873 -0.005113 0.305418
-0.252380 0.061542 0.132768
-0.791522 0.188390 0.202381
0.021127 -0.032758 0.520959
-0.189452 0.024949 0.261570
-0.431544 0.282678 0.707731
-0.331731 0.198796 0.602314
-0.553757 -0.148417 0.458261
-0.391820 0.117932 0.158677
-0.300223 0.041651 0.186649
-0.259840 0.067620 0.182985
-0.370983 0.086765 0.154598
-0.878738 -0.002579 0.424609
-0.279728 0.085771 0.158476
-0.857548 0.032898 0.500073
-0.364155 0.080259 0.253850
-0.296466 0.034928 0.144058
-0.850426 -0.003309 0.412840
-0.517244 0.056891 0.726877
-0.212898 0.206752 0.555490
-0.237514 0.227773 0.607388
-0.509871 -0.117421 0.317588
-0.720602 0.042323 0.231793
-0.837594 0.019112 0.395564
-0.238250 0.072947 0.209621
-0.277392 0.034825 0.511720
-0.979917 -0.008427 0.396702
-1.210476 0.032301 0.477507
-0.508865 0.106111 0.145196
-0.612029 0.091709 0.165056
-0.305412 0.061750 0.175000
-0.749175 -0.101591 0.319879
-0.019161 0.070742 0.551389
-0.588330 -0.076967 0.348727
-0.307337 0.091802 0.242282
-0.522853 0.144584 0.363082
-0.256482 0.067213 0.182118
-0.593736 -0.134515 0.346664
-0.782061 -0.093181 0.288965
-0.222405 0.104667 0.182973
-0.508805 0.054353 0.658573
0.010939 -0.039872 0.540675
-0.570666 -0.120435 0.382737
-0.922896 0.029922 0.475519
-0.211706 -0.067912 0.643246
-0.288722 0.118946 0.556251
-0.243543 0.213513 0.604832
-0.113306 0.093009 0.397002
-0.620945 -0.032791 0.403537
-0.085313 0.062776 0.246572
-0.510152 -0.088252 0.330350
-0.852545 -0.082166 0.663034
-0.890608 -0.005142 0.507013
-0.558558 0.166388 0.592253
-0.240285 0.077252 0.182893
-0.511468 0.252035 0.587961
-0.509848 0.092374 0.301087
0.040723 0.115710 0.499394
-0.017128 -0.018304 0.506695
-0.352356 0.039661 0.633581
-0.017416 0.142995 0.478540
-0.300662 0.109371 0.346146
-0.193989 0.021631 0.256742
-0.815155 -0.077939 0.511055
-0.371014 0.193085 0.425888
-0.198105 0.053349 0.256740
-0.213315 0.057224 0.271192
-0.738202 -0.069355 0.413144
-0.272467 0.088699 0.211775
-0.469930 0.048883 0.673813
-0.862448 0.019320 0.468979
-0.640905 0.113326 0.415574
-0.302066 0.118247 0.172314
-0.190311 0.091649 0.166674
-0.381483 0.080501 0.215158
-0.395022 0.082076 0.266668
-0.561700 -0.134726 0.309074
-0.546593 -0.084041 0.310254
-0.093751 0.000609 0.137464
-0.029099 0.010179 0.084711
-0.293859 0.068394 0.146371
-0.312624 0.037490 0.147766
-0.277196 0.057095 0.162771
-0.352550 0.036787 0.610139
-0.643823 -0.040171 0.380508
-0.115117 0.100829 0.599653
-0.263002 0.062925 0.634254
-0.194935 -0.047434 0.260811
-0.581514 -0.128970 0.684534
-0.169741 0.019541 0.556448
-0.174836 -0.053929 0.427887
-0.398495 -0.143174 0.644153
-0.459841 0.054622 0.520292
-0.361824 0.040242 0.617565
-0.444858 0.098929 0.350114
-0.347788 0.219442 0.558858
-0.113126 0.166909 0.531060
-0.676880 0.022755 0.350674
-0.311579 0.054058 0.148269
-0.154072 -0.015486 0.222339
-1.197264 -0.032176 0.665668
-1.099800 -0.097275 0.408872
-0.172180 0.144300 0.396294
-0.015598 -0.022042 0.459455
-0.032373 0.134724 0.458984
-0.803729 -0.077952 0.312913
-0.581908 -0.064072 0.279437
-0.247224 0.102375 0.174622
-0.537737 -0.091786 0.345616
-0.332340 0.197118 0.580596
-0.346620 0.144885 0.600640
-0.182915 -0.009837 0.247886
-0.340579 0.181720 0.592451
-0.427902 0.199238 0.472876
-0.432971 0.203178 0.477225
-0.789592 -0.040557 0.893049
-0.569445 -0.072705 0.313723
-0.334298 0.057861 0.156622
-0.946818 0.044833 0.503908
-0.497866 0.243040 0.601667
-0.346516 0.204169 0.569321
-0.463509 0.128341 0.617108
-0.110924 0.019323 0.155394
-0.631908 -0.081184 0.370943
-0.795458 0.034287 0.433651
-0.670679 0.062068 0.735499
-1.195008 0.125442 0.868634
-0.529469 0.180262 0.354868
-1.533354 -0.011803 0.741797
-0.118977 -0.058295 0.191619
-0.751085 -0.161753 0.430365
-0.763763 -0.108168 0.361467
-0.770756 -0.121649 0.466299
-0.679038 -0.164935 0.330302
-0.844338 0.015783 0.517470
-0.147573 -0.014555 0.176285
-0.369747 0.075339 0.639939
-0.230281 -0.092724 0.256938
-1.665423 0.061973 1.281411
-0.193751 0.022682 0.435351
-0.472346 0.156220 0.348677
-0.330851 0.074605 0.853558
-2.032676 0.078905 1.419919
-0.344130 0.217612 0.525145
-0.098059 0.031883 0.169811
-0.195836 -0.012659 0.437054
-0.321592 0.195545 0.551078
-0.477257 0.091088 0.635231
-0.626139 -0.079487 0.364166
-0.282559 0.104229 0.276748
-0.290972 0.044580 0.141660
-0.540813 0.149959 0.372860
-0.430639 0.152919 0.458997
-0.242044 0.085868 0.180288
-0.885368 -0.118606 0.459279
-1.378367 0.080773 0.443844
-0.458106 0.232699 0.582741
-0.408983 0.130908 0.292447
-0.149610 0.153036 0.393943
-0.344280 0.174595 0.597968
-0.355580 0.080160 0.639431
-0.027264 -0.038462 0.569363
0.041863 0.083855 0.765684
-0.397753 0.132545 0.315626
-0.184883 0.179293 0.489810
-0.248362 0.073755 0.721131
-0.181277 0.001823 0.585735
-0.166364 0.082811 0.425593
-0.165568 0.162002 0.389339
-0.098578 0.016850 0.190935
-0.173807 0.106570 0.400511
-0.243315 0.014339 0.310153
-0.344101 0.029036 0.205156
-0.440920 0.048977 0.653594
-0.250557 0.060059 0.223900
-0.442929 0.111883 0.494739
-0.223038 0.021095 0.504326
-0.403731 0.254644 0.609763
-0.184950 0.022743 0.583731
-0.151059 0.192512 0.544362
-0.322562 0.196913 0.587399
-0.186918 0.137442 0.461728
-0.366582 -0.108270 0.373930
-0.378402 0.219168 0.607985
-0.382036 0.224202 0.615823
-0.286825 0.080946 0.749014
-0.169536 -0.019783 0.394771
-0.301040 0.032941 0.474307
-0.266397 0.177709 0.385539
-0.155028 -0.062980 0.225584
-0.769003 -0.094262 0.435046
-0.507662 0.052140 0.710441
-0.415078 0.220415 0.532951
-0.579308 -0.120199 0.682006
-0.335416 0.102773 0.182162
-0.359367 0.082885 0.646074
-0.333601 0.158969 0.578990
-0.205065 0.077388 0.205918
-0.369243 0.237492 0.565224
-0.184788 0.073459 0.203670
-0.159808 0.029114 0.223177
-0.174481 -0.035546 0.428065
-0.391756 0.130710 0.312645
-0.399042 0.202809 0.450905
-0.197156 -0.073575 0.438286
-0.263360 0.002680 0.602866
-0.197439 0.064456 0.436088
-0.437073 0.185965 0.584548
-0.174997 0.034493 0.403143
-0.195647 -0.067346 0.463956
-0.253519 0.118908 0.522858
-0.100739 0.050775 0.358418
-0.142569 0.145776 0.380852
-0.170266 0.007289 0.554394
-0.359949 0.086694 0.647661
-0.189204 0.088086 0.426887
-0.136228 0.085909 0.195731
-0.275844 0.005024 0.628875
-0.350175 0.236946 0.590994
-0.347526 0.157153 0.601477
-0.174520 0.004120 0.564737
-0.839815 -0.040173 0.643765
-0.199748 0.176613 0.384324
-0.365111 0.236536 0.571490
-0.611021 -0.120050 0.438999
-0.642342 -0.045577 0.675718
-0.488649 0.151390 0.343132
-0.183177 -0.060930 0.442458
-0.348798 0.057338 0.606384
-0.203553 -0.048702 0.268774
-0.190809 -0.042427 0.256608
-0.581655 -0.068877 0.316456
-0.885726 -0.001537 0.388932
-0.514489 -0.059493 0.258245
-0.211154 0.116105 0.266798
-0.154322 0.089447 0.212743
-0.322347 0.032718 0.392654
-0.173457 0.069441 0.439697
-0.321697 0.155567 0.389350
-0.250376 -0.065774 0.269596
-0.514130 0.245542 0.600155
-1.050419 -0.096028 0.720629
-1.022853 -0.060532 0.688388
-0.480614 0.250896 0.577600
-0.133253 -0.018658 0.442846
-0.389415 0.139363 0.282207
-0.169531 -0.053078 0.548348
-0.264437 0.063524 0.166758
-1.369833 0.050276 0.668075
-0.675876 -0.068958 0.354505
-0.978633 -0.031919 0.633272
-0.357723 0.100463 0.616075
-0.296602 0.206765 0.530369
-0.225141 0.202687 0.594173
-0.516313 -0.153953 0.718732
-0.354854 0.215913 0.606711
-0.319140 0.080173 0.368646
-0.341386 0.173410 0.591087
-0.764182 -0.037317 0.867027
-0.590469 -0.128996 0.374512
-0.356307 0.068878 0.614050
-0.765082 -0.041067 0.863450
-0.173235 -0.044687 0.424974
-0.162491 0.080599 0.415686
-0.341727 0.202239 0.565190
-0.171263 -0.049007 0.420842
-0.376597 0.182063 0.464316
-0.510299 -0.156983 0.725214
-0.471900 0.097001 0.628437
-0.169918 0.012562 0.556117
-0.339807 0.194037 0.590097
-0.361272 -0.107331 0.516379
-0.511063 -0.135009 0.653433
-0.201404 -0.070529 0.266483
-0.633131 -0.129160 0.729353
-0.402025 0.090310 0.709559
-0.209708 -0.023618 0.464414
-0.197741 -0.066438 0.451012
-0.184644 0.003669 0.419784
-0.150600 0.154085 0.396223
-0.187227 -0.052967 0.252731
0.021900 -0.009551 0.513940
-0.158150 0.104052 0.426649
-0.182166 -0.039931 0.441351
-0.235582 0.057705 0.172758
0.007798 0.130727 0.424176
-0.051287 0.032821 0.376866
-0.359004 0.079378 0.616804
-0.129284 0.049829 0.109417
-0.182233 -0.067149 0.439884
-1.965097 0.143870 1.395541
-0.455760 0.212095 0.536088
-0.026682 0.009921 0.082838
-0.287422 0.152955 0.858123
-0.610837 -0.125788 0.712675
0.011429 -0.025868 0.600491
0.033832 0.057259 0.950448
-0.172103 0.133302 0.441054
-0.355804 0.213972 0.638111
-0.122496 -0.038509 0.166884
-0.351912 0.231418 0.566256
-0.175720 -0.034114 0.430649
-0.357017 0.058268 0.640820
-0.256484 -0.083868 0.275590
-0.437621 -0.147799 0.674558
-0.494260 0.240142 0.598528
-0.747934 -0.197637 0.597362
-0.054518 0.136616 0.469748
-0.409914 0.134300 0.691405
-0.186809 -0.049318 0.218030
-0.331268 0.201453 0.585065
-0.360778 0.040525 0.568868
-0.322194 -0.038961 0.310481
-0.152297 0.155302 0.400920
-0.399919 0.207949 0.468571
-0.534183 0.270580 0.596932
-0.423572 0.202575 0.519194
-0.046757 0.002285 0.099220
-0.180366 -0.030366 0.411436
-0.263594 0.047871 0.267549
-0.364096 0.054070 0.624562
0.014402 -0.010970 0.550383
-0.164027 0.227851 0.563405
-0.125505 0.076086 0.433345
-0.360848 0.091051 0.620831
-0.342521 0.214880 0.590727
-0.175024 0.001088 0.402305
-0.216367 0.074456 0.468242
-0.109622 -0.011620 0.151438
-0.119063 0.022173 0.338122
-0.017936 0.001507 0.076886
-0.200357 0.111160 0.266182
-0.293019 -0.060947 0.360710
-0.477667 -0.083274 0.541440
-0.171404 0.041307 0.574365
-0.218340 -0.019259 0.227806
-0.329049 0.208556 0.431884
-0.360749 0.037735 0.624050
0.033000 0.090640 0.819875
0.024941 0.020596 0.643397
0.015172 -0.035836 0.554188
-0.138278 0.159042 0.480615
-0.533340 -0.106930 0.599540
-0.466976 0.080169 0.622495
0.058120 0.039758 0.585044
-0.294300 0.033145 0.354836
-0.170322 0.013987 0.205773
-0.023427 0.009651 0.080238
-0.335551 0.096248 0.582267
-0.242464 0.005814 0.772988
-0.251582 0.042251 0.258904
-0.031830 0.043329 0.641479
-0.154604 -0.005588 0.367573
-0.314503 0.126887 0.594076
-0.240780 0.003323 0.564784
-0.508507 0.101822 1.235348
0.058606 -0.046934 0.490375
-0.157740 0.105573 0.408533
-0.133253 0.122888 0.357179
0.022222 -0.045193 0.557419
-0.421816 0.116152 1.076106
-0.017015 -0.022598 0.496227
-0.017053 0.059899 0.581164
-0.114130 0.092751 0.403418
-0.382752 0.110078 0.651931
-0.143207 0.132548 0.380679
0.014100 -0.044911 0.627225
-0.244775 0.186477 0.519301
-0.174076 -0.018450 0.428317
-0.133126 0.179797 0.475991
-0.176506 0.084663 0.405960
-0.193801 0.086973 0.509208
-0.171421 -0.024579 0.421186
-0.359246 0.089591 0.616818
-0.123878 0.176765 0.493835
-0.149780 0.018434 0.500320
-0.108953 0.061967 0.565839
-0.203821 0.002297 0.488438
-0.188325 0.192075 0.537058
-0.265628 -0.060650 0.332964
-0.427794 0.045003 0.634707
0.073214 0.123423 0.515924
-0.036381 -0.033407 0.732045
0.036252 -0.082603 0.901568
-0.292597 0.078206 0.819189
-0.115458 0.163884 0.523328
-0.117508 0.061713 0.605017
0.056163 0.077856 0.521007
0.071482 0.126658 0.519001
-0.416223 0.038502 1.032298
-0.142409 0.063506 0.377790
-0.179522 0.019938 0.410628
-0.133993 0.122022 0.363388
-0.314003 0.124763 0.868992
-0.190763 -0.030650 0.458386
-0.158093 0.050161 0.952760
-0.164433 0.018935 0.553879
-0.178925 0.061489 0.411376
-0.209813 -0.016738 0.275311
-0.140861 0.042433 0.339143
-0.326260 0.153233 0.568863
-0.190211 0.128304 0.478187
-0.251572 0.118941 0.530538
-0.175046 -0.000472 0.550707
-0.155336 0.111821 0.456423
-0.278152 0.124563 0.786839
-0.135039 -0.004451 0.207483
-0.172475 0.134333 0.442117
0.027924 -0.060242 0.495216
-0.596717 -0.119792 0.698562
-0.163345 0.057906 0.383419
-0.165844 0.009724 0.537374
-0.358822 0.231819 0.550641
-0.305196 0.198079 0.513144
0.052813 -0.060634 0.484545
-0.106780 0.015363 0.171276
0.058068 -0.023104 0.448981
-0.168042 0.136279 0.435894
-0.256526 0.106295 0.688925
-0.430708 0.141050 1.085570
-0.339864 -0.017643 0.919944
-0.190964 -0.051691 0.428882
-0.209604 0.075087 0.619870
-0.205508 -0.048073 0.452600
-0.011465 0.014810 0.388918
-0.123924 0.021585 0.421705
-0.142469 0.162816 0.492526
-0.136363 0.068838 0.464853
-0.188533 -0.074351 0.453794
-0.141955 0.090314 0.503295
-0.170396 -0.029815 0.236047
-0.264085 0.208197 0.531339
-0.102697 0.031892 0.277631
0.082603 0.021718 0.242124
-0.099856 0.063963 0.274262
-0.143871 -0.100424 0.600854
0.027065 -0.041117 0.584322
0.099983 0.070524 0.419927
-0.131072 -0.083206 0.608462
-0.001007 0.003566 0.036724
-0.019391 -0.078082 0.460264
-0.092220 -0.126282 0.582164
-0.020146 -0.076009 0.483143
0.010895 -0.019118 0.093617
0.050465 -0.059675 0.479216
-0.113125 0.054359 0.278655
0.083100 0.028053 0.223934
-0.039881 -0.078402 0.701431
-0.017710 0.041574 0.587864
0.088181 0.057412 0.241298
0.089341 0.081039 0.238957
-0.161603 -0.001223 0.536861
0.052344 0.000194 0.610371
0.103175 -0.005540 0.449344
0.016726 -0.057047 0.483508
0.057250 -0.045046 0.481812
-0.709256 0.123799 2.422164
0.150973 -0.004282 0.482113
-0.105187 0.026339 0.281728
0.071101 0.018797 0.210354
0.051643 -0.080559 0.466465
0.037102 -0.053425 0.496947
-0.111657 0.055823 0.276753
-0.099214 0.068251 0.274362
-0.144981 -0.000417 0.475863
-0.114187 -0.047902 0.291308
0.111782 0.035802 0.438227
-0.000709 0.007892 0.075311
0.084209 0.020087 0.245560
0.035872 -0.093235 0.463291
-0.119747 -0.043631 0.306669
0.122181 -0.077565 1.172478
0.420788 -0.019998 2.011739
-0.098713 0.034151 0.268741
-0.025324 -0.109631 0.507482
0.085779 -0.046240 0.445546
-0.171436 -0.126653 0.617778
0.106249 0.110899 0.405393
0.077690 -0.082870 0.436403
0.040794 0.041944 0.843699
0.099430 0.080143 0.410442
-0.024588 -0.098581 0.460666
0.036972 -0.059122 0.346954
0.050923 -0.081496 0.471834
-0.102296 0.036225 0.280137
0.113996 -0.005828 0.484238
-0.192082 0.105421 0.547435
0.040226 -0.037467 0.546179
0.051230 -0.091530 0.444843
-0.199745 -0.064701 0.946019
-0.019603 -0.081776 0.432402
0.114536 -0.000905 0.493175
-0.003323 -0.004894 0.096266
0.054836 -0.080722 0.461635
-0.021755 -0.093874 0.488723
-0.117098 0.014693 0.397847
-0.126082 0.042422 0.434668
0.063126 0.022560 0.447360
0.013432 0.001244 0.096360
-0.098224 0.051529 0.269449
0.116204 -0.339948 2.023068
0.113169 0.036300 0.476104
0.051840 -0.067306 0.459009
-0.088603 0.038906 0.254112
-0.020906 -0.088904 0.521077
0.055813 -0.017995 0.453151
-0.018187 -0.060737 0.490204
-0.176438 -0.130716 0.634860
-0.118184 0.073727 0.413270
-0.103597 0.161662 0.504416
0.094548 0.020552 0.431783
0.055252 -0.080597 0.455107
0.089847 0.118754 0.418955
0.053977 -0.063163 0.480109
0.328166 0.140316 1.411629
0.104844 0.105243 0.410150
-0.098359 0.140503 0.502291
-0.154039 0.101049 0.413295
-0.018756 -0.041924 0.518339
-0.141775 0.099335 0.413266
0.129834 0.043159 0.493025
-0.236548 -0.076373 0.709991
0.022852 -0.004972 0.079111
0.071653 0.046893 0.427026
-0.018902 -0.060464 0.492313
0.009082 0.001164 0.556849
0.017344 -0.017995 0.600431
0.053806 0.025436 0.580965
0.057076 -0.019167 0.457111
-0.002987 0.007475 0.114447
-0.131576 0.048991 0.454547
-0.117958 0.095972 0.415241
-0.114355 0.137996 0.420808
0.115234 -0.009279 0.502788
0.116573 -0.000222 0.499250
0.045316 0.107181 0.484376
0.112208 -0.008804 0.492135
0.091044 -0.022915 0.447168
0.162072 -0.004028 0.521379
-0.153289 -0.112221 0.622260
0.114377 0.021628 0.472573
0.158595 -0.003860 0.510731
-0.040875 -0.083414 0.731005
0.133908 0.136683 0.502101
0.035307 -0.070793 0.469915
-0.128854 -0.093242 0.533669
-0.148906 0.028905 0.503961
-0.091958 -0.125508 0.579478
0.103465 0.085752 0.423916
0.034592 0.120144 0.491026
0.027345 -0.043450 0.560665
0.084224 -0.083378 0.464960
0.153025 -0.004313 0.483885
-0.023711 -0.076368 0.467993
-0.132508 -0.040604 0.435103
0.055820 0.044347 0.586856
-0.137171 0.121433 0.408100
0.018475 -0.059763 0.502182
0.062577 0.002535 0.460350
0.054626 -0.029262 0.502461
-0.018879 -0.056979 0.540115
-0.125724 0.037313 0.431968
-0.092836 -0.088617 0.686261
0.109305 0.032569 0.462474
0.061374 -0.014676 0.455248
0.080672 0.119182 0.416172
0.099563 0.057589 0.427815
0.112163 0.021523 0.467583
0.075562 0.126660 0.483172
0.110422 -0.026136 0.447124
0.050842 0.018093 0.593655
-0.384216 -0.240146 1.460703
0.111372 0.032345 0.470539
0.112841 0.033818 0.477358
0.096979 0.070909 0.406291
0.001801 0.054488 0.735080
0.009125 0.113119 0.357285
0.054499 -0.074814 0.477516
0.028839 -0.073913 0.488156
0.126536 0.027645 0.499066
0.122209 0.035450 0.474457
0.058930 -0.022843 0.450930
0.111950 0.114504 0.440651
0.025023 -0.000183 0.616388
0.052916 -0.032404 0.497227
0.083199 -0.090248 0.467779
-0.141326 -0.091264 0.650143
0.126235 0.047156 0.506046
0.061256 -0.002817 0.504821
-0.121483 0.079643 0.425600
0.036871 -0.053915 0.503491
-0.018032 -0.038548 0.499524
0.046139 -0.093219 0.544911
0.021794 -0.046957 0.734656
-0.020074 -0.075871 0.475328
0.064729 0.019540 0.449186
-0.008528 0.104639 0.541542
0.039440 -0.080071 0.522950
0.117513 0.024606 0.468461
0.054466 -0.021679 0.527859
-0.123061 -0.086872 0.521307
0.055330 0.017729 0.561182
-0.144078 -0.060722 0.459906
-0.034751 -0.067323 0.546706
0.035882 -0.040575 0.517355
-0.129494 -0.021788 0.428952
0.061844 0.002897 0.477956
0.055063 -0.071518 0.479979
-0.146245 0.035642 0.496593
-0.113085 0.059438 0.396357
-0.228121 -0.073528 0.685965
-0.111989 -0.042500 0.288278
0.025111 0.127981 0.475254
0.058703 -0.002861 0.456788
0.022120 -0.066904 0.658850
0.044989 0.047346 0.548257
0.026761 -0.077444 0.462062
0.006231 0.144833 0.489284
0.074573 0.131682 0.481774
0.069098 0.121876 0.513740
0.054996 -0.044587 0.503279
-0.150523 -0.006871 0.494697
0.104471 0.108495 0.409702
0.034237 -0.069561 0.448469
-0.020585 -0.076537 0.478800
0.055031 -0.051116 0.491340
0.000244 -0.005775 0.133084
0.096485 0.038690 0.427165
0.076606 0.126517 0.485883
0.054023 -0.015695 0.446456
0.048075 -0.001636 0.576338
0.018289 -0.019196 0.534521
-0.016500 -0.026512 0.491061
0.050622 0.026974 0.501782
0.107823 0.111556 0.415116
0.115146 -0.007155 0.496125
-0.017498 -0.058980 0.482217
0.029049 -0.075149 0.490702
-0.019997 -0.078266 0.463489
0.111106 0.032365 0.468461
0.014785 -0.012398 0.625312
-0.153207 -0.112392 0.589635
0.060628 0.004731 0.470805
0.137883 -0.028815 0.438852
0.068114 0.121158 0.512101
0.109346 0.034624 0.461936
0.037015 -0.062996 0.507727
0.095672 0.119571 0.423318
-0.123621 0.052911 0.429311
0.095975 0.028037 0.431881
0.017648 -0.040578 0.487840
0.411128 -0.046156 2.999960
0.012805 -0.037838 0.528739
0.052631 -0.049271 0.482031
0.126450 0.096387 0.523694
-0.032206 -0.012611 0.917580
0.035756 -0.052826 0.497753
-0.034888 0.143514 0.486781
0.096755 0.019158 0.437389
-0.173378 0.016829 0.832153
0.056816 0.017516 0.559835
-0.139633 0.013887 0.683862
-0.166226 0.082457 0.422770
0.055169 0.025184 0.554962
-0.054664 0.157850 0.510061
0.117614 -0.009479 0.500896
0.048541 0.093201 0.585532
0.060288 0.001208 0.467395
0.058882 -0.009801 0.539970
0.063205 0.004441 0.450333
0.037414 -0.023563 0.550861
0.037016 0.020202 0.587163
0.015271 0.001285 0.549652
0.078552 0.113803 0.413091
0.044301 0.005338 0.569763
-0.096712 0.137792 0.495846
0.063263 0.024242 0.451920
-0.175741 -0.050480 0.845643
0.037202 0.009565 0.597470
0.103972 0.087508 0.425090
0.043478 0.096870 0.523898
0.049438 -0.019467 0.515282
0.043718 0.084659 0.533864
-0.070131 -0.034327 1.104796
-0.000763 0.000498 0.003927
-0.092022 0.039710 0.255157
0.030032 0.150539 0.523812
-0.109871 0.159352 0.509833
0.107978 0.135524 0.479380
0.151928 -0.007615 0.500144
-0.140319 0.111587 0.412333
0.019043 -0.056603 0.516175
0.141002 -0.405161 2.397480
0.058077 -0.068411 0.480823
-0.154840 -0.096302 0.586565
-0.013214 -0.048832 0.333061
0.035500 0.122656 0.500003
0.035376 0.055336 0.736526
0.064509 0.019691 0.449648
0.062827 -0.005002 0.454658
-0.137658 0.077213 0.478878
-0.058943 0.156395 0.502584
-0.018060 -0.034620 0.500273
-0.009345 -0.040389 0.510900
0.040172 -0.014053 0.506220
-0.086510 0.128757 0.506871
0.040723 -0.020209 0.530428
0.178872 0.028484 0.505112
0.183668 -0.033583 0.469623
0.012606 -0.018077 0.533436
0.028711 -0.077382 0.503274
-0.072577 0.232044 0.753972
0.116842 0.039632 0.457123
0.053271 -0.014183 0.522625
0.075140 0.132565 0.483758
-0.103578 -0.068920 0.830741
0.017034 -0.055237 0.520134
0.052319 0.018522 0.599880
0.026116 0.130850 0.484644
-0.237860 0.093637 1.160457
0.052885 0.020512 0.585081
0.053218 0.026474 0.599607
-0.006087 -0.018469 0.490304
0.059878 -0.000517 0.505705
0.037931 -0.034465 0.528738
-0.016569 -0.025343 0.490443
-0.137759 0.063312 0.364532
0.045096 -0.015783 0.573372
0.047712 -0.002403 0.585670
0.011284 0.138994 0.434882
0.055007 -0.022697 0.431205
-0.016800 -0.025253 0.495340
0.047041 0.117111 0.502757
0.071102 0.050317 0.420060
0.055920 -0.022069 0.528855
-0.140413 -0.057053 0.453396
-0.145006 -0.072480 0.668265
0.098736 0.067195 0.416770
-0.085745 0.127457 0.502419
0.050952 0.005960 0.584503
0.040849 0.086402 0.499993
0.029223 -0.075757 0.496058
0.030938 0.083273 0.739292
-0.039469 -0.112817 0.617638
0.105590 0.030448 0.476360
0.040945 0.092631 0.511158
0.023651 -0.039627 0.572544
-0.002833 0.127624 0.507203
0.051144 0.083634 0.537911
0.032653 -0.017182 0.608409
-0.019089 -0.071295 0.451574
0.065135 0.074094 0.530762
0.063401 0.072244 0.522810
0.055622 0.006579 0.541250
-0.038805 0.146019 0.478333
0.086444 -0.058554 0.458608
-0.256417 0.029965 1.621238
0.060099 0.002105 0.451171
0.011980 -0.007770 0.506334
0.068523 -0.142770 1.177775
0.027916 0.024927 0.478688
-0.067072 0.154044 0.490991
-0.017681 0.061475 0.644431
0.025411 0.024707 0.609356
-0.145763 0.085182 0.726712
0.111376 -0.000628 0.482095
-0.022047 0.133021 0.469128
0.043575 -0.013485 0.558868
0.056059 0.050813 0.583909
0.091517 0.003788 0.431613
-0.122526 0.144235 0.436051
0.190829 0.071599 0.819258
0.028690 -0.079751 0.473772
-0.173010 0.020313 0.576916
0.093380 0.004868 0.435475
0.011595 -0.028363 0.494505
0.059619 -0.054080 0.516254
0.036630 0.109917 0.492873
0.055127 -0.070777 0.470170
0.018748 0.001793 0.650650
0.049089 0.067200 0.685038
0.297310 0.010895 0.440471
0.184206 -0.010342 0.496390
0.012929 -0.029586 0.286337
-0.022001 0.136407 0.480047
-0.297735 0.117881 0.823724
-0.139190 -0.072241 0.449474
0.029933 -0.022158 0.592166
-0.016599 0.062707 0.620338
0.102173 0.090762 0.413916
-0.017545 -0.007142 0.538579
0.105452 -0.025527 0.446516
-0.037650 -0.032937 0.890097
-0.016590 -0.025144 0.494258
0.059984 -0.025982 1.083808
0.072541 0.024673 0.500864
0.098728 0.064430 0.418801
-0.014799 0.035915 0.554478
-0.003581 0.128710 0.522148
0.032036 0.028297 0.621787
0.020923 0.008943 0.544641
0.107910 0.039849 0.465585
0.039758 0.140338 0.495022
0.057345 -0.019731 0.457594
-0.016931 -0.000103 0.525191
0.053719 -0.052159 0.483034
-0.308265 0.104501 0.817828
-0.003846 0.122904 0.495273
-0.017699 -0.033959 0.500281
0.059435 0.056912 0.640705
-0.099697 0.147689 0.521900
0.022701 -0.012710 0.613742
0.018932 0.011242 0.655575
0.034780 0.052541 0.748853
-0.453307 0.118865 1.265439
-0.128789 0.007136 0.430941
0.052892 0.018326 0.600253
0.037801 -0.076590 0.494889
-0.040042 0.127158 0.505091
0.050435 -0.015190 0.513005
0.004001 0.144924 0.494437
0.062225 0.160996 0.575632
-0.134192 -0.045554 0.438649
-0.169945 -0.022120 1.106316
-0.133130 0.004285 0.442272
0.041153 0.028520 0.660798
0.008245 0.002227 0.548186
-0.018642 -0.067382 0.474452
0.045895 -0.032446 0.611214
-0.084325 -0.049287 1.395247
0.032107 -0.016674 0.612703
0.006093 -0.009349 0.524355
0.030831 -0.001099 0.592772
0.079518 0.110124 0.414153
-0.017553 0.145354 0.486164
0.045465 0.045380 0.674126
-0.016437 -0.029414 0.480469
0.017280 0.131505 0.480715
0.055739 -0.012632 0.523073
-0.010667 -0.042061 0.522127
0.038868 0.110090 0.501211
0.052365 0.037744 0.569009
-0.033161 0.140635 0.961132
0.033246 0.104357 0.535334
0.056984 0.038479 0.574011
-0.017738 -0.066499 0.463466
0.069057 0.027435 0.481374
-0.127036 0.019968 0.632967
0.054134 0.018722 0.606033
-0.007476 0.076410 0.659922
-0.004482 0.117367 0.507289
0.030244 0.001314 1.334363
0.052097 0.018713 0.594477
0.061081 0.034460 0.572671
0.029121 -0.089615 0.751848
-0.016418 0.058658 0.583536
0.077740 0.112805 0.404045
-0.047531 0.131369 0.488831
0.034327 -0.032764 0.515307
0.037632 -0.027029 0.727527
-0.158255 -0.013150 0.752187
0.058045 0.033657 0.555172
-0.009576 0.099701 0.526181
0.069743 0.023377 0.580014
-0.015553 0.057422 0.634301
-0.026558 -0.032487 0.555263
0.015611 -0.048280 0.476313
-0.229345 0.011550 1.452428
0.043595 0.092771 0.595936
0.054544 -0.013870 0.528311
0.046162 0.089165 0.524378
0.065169 0.029071 0.468304
0.026166 0.130007 0.481473
-0.044228 0.073920 0.965512
0.055108 0.045282 0.574201
-0.015537 0.021669 0.528893
0.058886 -0.013096 0.463725
0.035285 -0.005791 0.596500
0.039484 -0.022705 0.553597
-0.179428 -0.020345 1.126880
0.026071 0.021902 0.678112
-0.075563 -0.015423 1.375695
-0.174001 -0.015240 0.815344
0.035349 0.081785 0.768428
0.016475 0.010327 0.523946
0.052944 0.068556 0.731542
0.045507 0.020950 0.687277
-0.049088 -0.002536 0.870952
-0.031760 0.129942 0.512617
0.047736 0.004067 0.585120
-0.006244 0.093683 0.567641
0.180696 -0.011214 0.496118
-0.228551 0.012386 1.443379
-0.152211 0.049978 0.919922
0.021487 0.142910 0.495468
-0.152486 0.044984 0.991850
-0.004635 0.125059 0.509355
-0.386267 0.006743 1.008365
0.036294 -0.001939 0.661273
0.071577 0.117484 0.489169
-0.126211 -0.033374 0.414851
0.045695 0.051010 0.669081
0.038856 0.138270 0.488396
0.055394 0.005967 0.542289
-0.114859 -0.050129 0.989351
-0.018708 -0.009063 0.548387
-0.029868 0.125417 0.500600
-0.112859 0.033691 0.567392
0.037766 0.106534 0.573154
-0.017029 -0.044123 0.471836
-0.014285 0.041045 0.545778
0.028420 0.138373 0.484355
0.095656 -0.024567 0.451445
0.054887 0.036986 0.572698
0.175503 0.033714 0.453170
0.114086 0.020960 0.460214
0.006564 -0.046128 0.480445
-0.346727 0.116682 0.911081
0.269945 0.020354 0.449605
0.211379 0.030611 0.455051
0.173705 0.026666 0.499449
0.105181 0.109224 0.411709
-0.384879 0.110730 0.995822
0.011524 0.083627 0.759458
-0.182117 -0.030480 0.867163
-0.016552 0.064773 0.618797
-0.159470 -0.054794 0.893254
-0.005870 0.090680 0.781821
0.202086 -0.028130 0.534957
-0.137615 -0.028091 0.447572
-0.003012 0.109319 0.560507
0.056430 -0.064882 0.462608
0.016487 -0.011771 0.532284
0.056147 0.026585 0.555130
0.043107 0.113319 0.615483
0.056450 0.039021 0.601756
0.302375 -0.014820 0.458596
0.024309 0.104180 0.574524
-0.098694 0.115871 0.528568
-0.015176 -0.012943 0.559691
-0.005438 0.141669 0.479285
0.061477 0.004208 0.477222
0.026566 -0.065173 0.742069
0.041466 0.021075 0.657822
-0.088467 0.067243 0.616320
-0.355530 0.010971 0.950449
0.028956 0.018635 0.980603
0.178211 -0.011164 0.489236
0.180064 -0.009818 0.493037
0.099867 0.039086 0.432262
0.055880 0.047823 0.570646
-0.015851 -0.006286 0.519546
0.052498 0.074189 0.509702
-0.084324 0.124562 0.491108
-0.016861 0.077955 0.626026
0.061017 0.004632 0.475251
-0.005791 0.115124 0.496177
0.039638 0.112791 0.479745
0.008646 0.044683 0.783435
-0.160171 -0.025831 1.130571
0.044706 0.043262 0.677771
0.047129 0.044400 0.697674
-0.117074 0.100485 0.619061
0.021985 0.041941 0.633558
-0.003801 0.117439 0.509963
0.037974 0.040377 0.651408
-0.173573 -0.020200 0.815504
-0.191900 -0.026416 1.184839
0.002048 -0.006509 0.203864
-0.013434 0.045286 0.470752
0.038134 0.007038 0.652752
0.035989 0.095664 0.571320
-0.125790 0.142759 0.895225
-0.029344 0.126976 0.506066
0.205977 -0.025964 0.481307
0.096872 0.043976 0.425894
0.210988 0.036325 0.453221
0.201017 -0.023799 0.473486
0.020924 -0.054785 0.731323
-0.020487 0.110323 0.524228
0.043818 0.135354 0.481301
-0.057945 0.130831 0.480803
0.174593 -0.009745 0.488445
0.141365 -0.007098 0.488851
0.065566 0.017585 0.455105
0.302417 0.056474 0.439766
0.038962 0.072696 0.518645
-0.028045 -0.043472 0.568329
0.044708 0.074013 0.512621
0.042510 -0.003266 0.567877
0.032735 0.126115 0.507798
-0.002537 0.077948 0.719602
0.006261 -0.009321 0.521911
-0.042549 0.060935 0.885878
0.064624 0.018186 0.451746
0.052851 -0.000504 0.540386
0.208754 -0.018382 0.481150
0.295322 0.011432 0.439501
0.297154 -0.025950 0.460170
0.302578 0.095981 0.444836
0.298464 -0.026732 0.461016
0.178779 0.023899 0.506543
0.200590 0.010186 0.482275
0.033500 0.102956 0.547314
0.171677 -0.008004 0.489768
0.198635 0.026846 0.473427
-0.133036 0.070625 0.662492
-0.021358 0.000697 0.649985
0.300989 0.022931 0.448171
0.298711 0.095270 0.442783
0.294159 -0.016161 0.451614
0.301063 -0.014713 0.458587
0.300746 -0.027578 0.462159
0.296994 0.020612 0.442862
0.044626 -0.015444 0.568551
0.057756 0.024867 0.570185
0.056800 0.047249 0.602266
0.028899 0.031816 0.678900
-0.026749 0.154458 0.510602
0.061598 -0.004680 0.473698
-0.128826 0.069268 0.657425
0.010471 0.085369 0.768665
0.056213 0.038151 0.606833
-0.043691 -0.027869 1.402699
-0.017791 0.042585 0.649452
0.014469 -0.040137 0.335102
-0.354113 0.006850 0.927108
0.037391 0.090363 0.568126
-0.000170 0.116063 0.547160
0.305505 0.055989 0.441170
0.208097 0.016865 0.460016
0.107228 0.026692 0.448287
0.036962 -0.035467 0.596394
0.036967 0.048412 0.533980
0.038074 0.056496 0.580806
0.052235 0.089370 0.547789
0.057881 0.039593 0.561216
0.060558 -0.007073 0.470825
0.034009 0.048349 0.521658
0.034593 -0.053055 0.498815
0.199902 0.008755 0.473369
0.236631 0.011495 0.455175
0.064174 0.022342 0.453815
0.063641 0.022448 0.471104
0.067739 0.097437 0.520677
0.063446 0.019374 0.450372
-0.114795 0.074029 0.413187
0.029303 0.018445 0.609094
-0.107237 0.076739 0.396647
-0.002362 0.121299 0.525055
0.060052 -0.018971 0.487627
-0.022194 0.101242 0.682501
-0.021716 0.090947 0.671879
-0.006577 0.093468 0.566942
0.174169 -0.024299 0.510069
0.181998 0.027646 0.497114
0.171540 -0.000926 0.498892
-0.014348 0.060121 0.611894
0.063297 -0.051143 0.575661
0.196382 0.010932 0.515458
0.155711 0.033642 0.469406
0.204603 -0.025320 0.483833
0.058277 0.046790 0.585232
0.045651 0.088734 0.526744
0.302669 0.017948 0.450032
0.300736 -0.019477 0.459391
0.215815 0.003668 0.495495
0.182819 -0.021342 0.520864
0.157305 0.034505 0.466756
0.207053 0.004784 0.471238
-0.166356 0.048133 1.082225
0.047660 0.074677 0.684084
0.059986 0.001896 0.451792
0.058502 -0.002303 0.464236
-0.034568 0.039340 0.284392
-0.120504 0.018466 0.604137
-0.017098 -0.014709 0.517519
0.068732 0.023314 0.458849
0.058911 -0.012883 0.464043
-0.003400 -0.000028 0.587302
-0.103111 -0.068481 0.832149
-0.028553 0.127030 0.481769
0.142263 0.041747 0.451155
0.208230 0.010028 0.468557
-0.365148 0.215854 1.026955
0.054629 -0.032206 0.501581
0.236773 0.017735 0.453164
-0.022859 0.137443 0.499227
0.062995 0.018720 0.446715
0.012484 0.120844 0.541294
-0.039891 0.127412 0.505474
0.038278 0.113564 0.502984
-0.002399 0.073393 0.701847
0.293163 0.023402 0.458787
0.176833 -0.030451 0.461855
0.201544 0.007184 0.482729
0.218226 -0.049760 0.463494
0.212321 0.015997 0.499054
0.209767 0.025039 0.483927
0.029184 -0.000832 0.582138
-0.017712 -0.018493 0.523437
0.007404 -0.019710 0.538885
0.044297 0.005812 0.570558
0.052708 0.026961 0.596862
0.014016 -0.034667 1.042165
-0.123202 0.073712 0.397957
0.061933 0.009977 0.477063
0.035074 -0.032306 0.516827
0.032016 0.004156 0.637080
0.037927 0.123884 0.504872
0.051276 0.066103 0.720397
-0.157759 -0.053967 0.880936
0.019299 0.019647 1.025640
-0.094464 -0.090290 0.697951
0.038706 -0.021930 0.548063
0.053360 0.026081 0.600814
0.054567 0.025151 0.553430
0.049735 0.088555 0.528248
0.168018 -0.011079 0.494967
0.198053 0.024439 0.473798
0.058014 -0.004931 0.515708
0.060557 -0.002584 0.471402
0.039988 0.069396 0.531237
0.057518 -0.025164 0.497484
-0.118153 0.096058 0.415353
0.053128 0.031812 0.578448
-0.010677 -0.005738 1.055335
0.029712 0.108720 0.567758
-0.030971 0.101642 0.545730
0.051176 0.076121 0.709041
-0.017058 0.020518 0.582541
0.063409 0.080257 0.779968
0.038984 0.066851 0.520068
0.054894 -0.021277 0.525441
0.054232 -0.041443 0.506126
0.025286 -0.061777 0.806954
-0.075736 0.110561 0.517238
-0.030889 0.101920 0.546946
0.238915 0.090062 0.433766
0.249007 0.011555 0.461332
0.161787 -0.007764 0.490993
0.209143 -0.032401 0.486946
-0.055167 0.082001 1.217147
-0.009438 0.102183 0.536566
0.038051 0.113217 0.504341
-0.117539 0.075280 0.422122
-0.016559 -0.021781 0.552825
-0.016019 -0.005562 0.512086
0.058441 0.014568 0.534400
0.061213 0.004049 0.475065
0.061052 0.007175 0.480668
0.034334 0.028243 0.604807
0.209770 0.010767 0.490904
-0.016483 -0.014485 0.524044
-0.157034 -0.015160 0.746468
0.303924 0.007611 0.453381
0.297971 -0.018305 0.448044
0.057251 -0.011508 0.460507
-0.126726 0.107401 0.655760
0.008496 0.085660 0.753688
-0.001433 0.071797 0.710585
-0.121002 0.078353 0.419378
0.298320 -0.004641 0.445615
0.161999 -0.008535 0.493392
0.060694 0.082373 0.517351
0.063522 0.092821 0.518190
-0.018176 0.014478 0.543534
-0.018037 0.013583 0.561745
0.208931 -0.019719 0.488817
0.224074 -0.035966 0.500626
0.205671 -0.031440 0.494030
0.317721 -0.036074 0.454284
0.287878 -0.044707 0.476850
0.046231 0.120159 0.493342
0.036524 0.122789 0.500726
0.298508 -0.071396 0.474759
0.182323 0.025557 0.485957
0.138707 0.025979 0.494531
0.207452 -0.022392 0.468350
0.064022 0.107279 0.510073
-0.167031 0.126794 1.137798
0.061094 -0.005165 0.470945
0.046909 0.122710 0.499599
0.046428 0.117236 0.501682
0.025669 0.107486 0.586997
0.056645 -0.021273 0.523907
0.179309 0.031544 0.507079
0.064325 0.022216 0.473033
0.132730 -0.009605 0.499305
0.058283 -0.011286 0.526010
0.061341 0.052023 0.519523
0.064991 0.024952 0.448553
0.035351 0.046261 0.740812
-0.004952 0.001254 1.330572
0.056211 -0.000208 0.536852
-0.145825 -0.070784 0.671324
-0.038689 0.124922 0.496721
0.061240 0.062951 0.517035
0.059741 -0.024182 0.455892
0.056543 -0.005076 0.513112
0.057293 -0.005082 0.514196
0.055196 -0.013371 0.523633
0.036045 -0.042918 0.524118
0.065107 0.005330 0.497143
0.003853 0.011851 0.519339
0.204103 0.011700 0.477502
0.179266 -0.009112 0.493772
0.161182 -0.008526 0.489580
0.145629 -0.004090 0.481999
0.104140 0.040896 0.438052
0.208665 -0.025175 0.476115
0.116130 -0.324378 1.927006
-0.159642 -0.052246 0.743786
-0.135603 0.077988 0.906836
0.059750 0.060611 0.517328
0.010614 -0.038073 0.507687
-0.015214 0.017783 0.534629
0.056329 0.036495 0.560190
0.154443 -0.003754 0.479540
0.118751 0.001565 0.474701
0.073033 0.039894 0.568104
0.096800 0.042466 0.425591
-0.015402 0.013715 0.535388
0.013060 0.119279 0.533043
0.062067 -0.006051 0.451176
-0.030743 0.127099 0.501776
0.154364 -0.019399 0.518823
0.058300 -0.014106 0.531415
0.201627 0.032092 0.452623
0.064989 0.029107 0.470433
0.033666 -0.013776 0.539974
-0.000650 0.119167 0.510988
0.032888 0.103945 0.532329
0.098632 0.042748 0.427202
0.062399 0.003457 0.449313
0.065163 0.050762 0.535866
0.033618 0.018136 0.609900
0.058847 0.108394 0.517870
-0.017078 -0.014974 0.520452
0.056126 0.071647 0.518598
0.061962 0.046922 0.516452
0.056791 -0.016792 0.478105
0.058586 0.048741 0.578649
0.002007 -0.005907 0.508576
0.060661 -0.022781 0.530154
0.045857 0.072674 0.669989
-0.015348 0.002538 0.553610
0.049724 0.049977 0.547810
0.011016 -0.003636 0.588241
0.067642 0.100436 0.515475
0.182433 -0.010128 0.495256
0.065433 0.002881 0.459490
0.059127 -0.005798 0.467591
0.047534 0.051120 0.693663
0.069022 0.108122 0.517493
0.067914 0.114656 0.516853
0.043232 0.051679 0.536300
0.063978 0.032922 0.609201
-0.001357 0.124365 0.537108
0.214474 0.024356 0.460112
0.132770 -0.009597 0.499593
0.192613 -0.017346 0.495856
0.191981 -0.012973 0.494679
0.016753 0.002785 0.934265
0.015975 -0.020655 0.538179
0.059603 -0.012134 0.475161
0.035117 0.018856 0.635788
0.064119 0.057283 0.520298
0.101081 0.041420 0.433255
0.062166 0.036910 0.584888
0.175614 -0.009497 0.489574
0.023343 -0.005380 0.596169
-0.017158 -0.020048 0.531459
0.008343 -0.030216 0.507635
0.027938 0.018399 0.602366
-0.019644 0.017469 0.533484
-0.122435 -0.034786 1.183711
0.060575 0.070858 0.527700
0.033453 0.107277 0.498355
0.059004 0.038185 0.581239
0.055783 0.038520 0.604100
0.061770 -0.015605 0.471090
0.026019 -0.004487 0.586162
0.026539 0.006147 0.578973
0.014007 0.017953 0.372862
0.060258 0.039981 0.585594
-0.059677 -0.028317 1.052729
0.190350 0.032673 0.451848
0.302752 0.017819 0.464633
0.302093 0.055585 0.439834
0.306134 0.013185 0.452328
0.036659 0.046525 0.750862
0.185636 -0.007766 0.486701
0.064006 0.044783 0.521341
