ply
format ascii 1.0
element vertex 603
property float x
property float y
property float z
property uchar red
property uchar green
property uchar blue
property float size
end_header
0.3170797493227137 -0.000498985607472482 0.1326298138082024 144 238 144 0.5
0.31707100341946365 -0.0004942164742139157 0.13260652477111173 144 238 144 0.5
0.3170623320943092 -0.0004893981142805625 0.13258333084858637 144 238 144 0.5
0.31705371942839045 -0.0004845328318744304 0.13256021810150717 144 238 144 0.5
0.31704514950284785 -0.00047962293119757003 0.13253717259075526 144 238 144 0.5
0.31703660639882164 -0.00047467071645198943 0.1325141803772114 144 238 144 0.5
0.31702807419745205 -0.0004696784918397115 0.13249122752175654 144 238 144 0.5
0.31701953697987934 -0.0004646485615627579 0.13246830008527158 144 238 144 0.5
0.3170109788272438 -0.00045958322982313666 0.13244538412863735 144 238 144 0.5
0.31700238382068546 -0.000454484800822899 0.13242246571273497 144 238 144 0.5
0.3169937360413449 -0.0004493555787640528 0.13239953089844514 144 238 144 0.5
0.3169850195703622 -0.00044419786784862057 0.13237656574664897 144 238 144 0.5
0.31697621848887764 -0.00043901397227862445 0.13235355631822718 144 238 144 0.5
0.31696731687803154 -0.00043380619625608686 0.13233048867406083 144 238 144 0.5
0.3169582988189641 -0.000428576843983015 0.1323073488750307 144 238 144 0.5
0.31694914839281546 -0.00042332821966146095 0.1322841229820178 144 238 144 0.5
0.31693984968072614 -0.0004180626274934323 0.13226079705590307 144 238 144 0.5
0.31693038676383617 -0.00041278237168095147 0.13223735715756735 144 238 144 0.5
0.3169207437232859 -0.00040748975642604043 0.13221378934789157 144 238 144 0.5
0.3169109046402155 -0.00040218708593070665 0.13219007968775662 144 238 144 0.5
0.3169008535957654 -0.0003968766643970026 0.13216621423804348 144 238 144 0.5
0.31689057467107573 -0.00039156079602693534 0.13214217905963302 144 238 144 0.5
0.31688005194728674 -0.0003862417850225274 0.13211796021340616 144 238 144 0.5
0.3168692695055388 -0.00038092193558580094 0.1320935437602438 144 238 144 0.5
0.31685821142697196 -0.0003756035519187631 0.1320689157610268 144 238 144 0.5
0.31684686179272664 -0.0003702889382234665 0.1320440622766362 144 238 144 0.5
0.316835204683943 -0.00036498039870191853 0.13201896936795288 144 238 144 0.5
0.3168232241817615 -0.0003596802375561413 0.13199362309585772 144 238 144 0.5
0.3168109043673222 -0.00035439075898815705 0.1319680095212316 144 238 144 0.5
0.31679822932176527 -0.00034911426719997306 0.1319421147049554 144 238 144 0.5
0.31678518312623116 -0.00034385306639364197 0.1319159247079102 144 238 144 0.5
0.3167717498618601 -0.00033860946077117075 0.13188942559097677 144 238 144 0.5
0.31675791360979233 -0.00033338575453458196 0.13186260341503608 144 238 144 0.5
0.316743658451168 -0.0003281842518858976 0.13183544424096902 144 238 144 0.5
0.31672896846712756 -0.00032300725702714023 0.13180793412965655 144 238 144 0.5
0.316713827738811 -0.0003178570741603174 0.13178005914197946 144 238 144 0.5
0.31669822034735884 -0.0003127360074874809 0.1317518053388188 144 238 144 0.5
0.31668213037391124 -0.00030764636121063824 0.13172315878105548 144 238 144 0.5
0.31666554189960844 -0.00030259043953181165 0.1316941055295703 144 238 144 0.5
0.31664843900559064 -0.0002975705466530235 0.13166463164524425 144 238 144 0.5
0.3166308057729982 -0.00029258898677628204 0.13163472318895816 144 238 144 0.5
0.3166126262829712 -0.0002876480641036378 0.13160436622159308 144 238 144 0.5
0.3165938846166502 -0.000282750082837099 0.13157354680402988 144 238 144 0.5
0.31657456485517527 -0.00027789734717868796 0.13154225099714945 144 238 144 0.5
0.3165546510796866 -0.0002730921613304267 0.13151046486183268 144 238 144 0.5
0.3165341273713245 -0.0002683368294943245 0.1314781744589604 144 238 144 0.5
0.31651297781122933 -0.0002636336558724303 0.13144536584941371 144 238 144 0.5
0.3164911864805413 -0.00025898494466675327 0.1314120250940735 144 238 144 0.5
0.3164687374604005 -0.0002543930000793153 0.13137813825382055 144 238 144 0.5
0.3164456148319475 -0.00024986012631213894 0.1313436913895359 144 238 144 0.5
0.31642180267632225 -0.0002453886275672464 0.13130867056210035 144 238 144 0.5
0.31639728507466514 -0.00024098080804664746 0.13127306183239482 144 238 144 0.5
0.3163720461081164 -0.00023663897195238975 0.13123685126130036 144 238 144 0.5
0.3163460698578164 -0.00023236542348648275 0.13120002490969776 144 238 144 0.5
0.3163193404049052 -0.0002281624668509488 0.13116256883846802 144 238 144 0.5
0.3162918418305232 -0.0002240324062478103 0.131124469108492 144 238 144 0.5
0.3162635582158106 -0.00021997754587907797 0.13108571178065048 144 238 144 0.5
0.31623447364190765 -0.00021600018994679743 0.13104628291582462 144 238 144 0.5
0.3162045721899547 -0.00021210264265297907 0.13100616857489522 144 238 144 0.5
0.3161738379410918 -0.00020828720819964538 0.13096535481874322 144 238 144 0.5
0.3161422549764594 -0.00020455619078881855 0.13092382770824945 144 238 144 0.5
0.3161098073771977 -0.00020091189462251072 0.1308815733042948 144 238 144 0.5
0.31607647922444687 -0.000197356623902765 0.13083857766776036 144 238 144 0.5
0.3160422545993473 -0.0001938926828315931 0.13079482685952698 144 238 144 0.5
0.31600711758303923 -0.00019052237561101732 0.1307503069404755 144 238 144 0.5
0.3159710522566629 -0.00018724800644306003 0.1307050039714869 144 238 144 0.5
0.3159340427013585 -0.00018407187952974358 0.13065890401344205 144 238 144 0.5
0.3158960729982662 -0.00018099629907308149 0.13061199312722174 144 238 144 0.5
0.31585712722852644 -0.00017802356927511373 0.13056425737370714 144 238 144 0.5
0.3158171894732796 -0.00017515599433785367 0.13051568281377907 144 238 144 0.5
0.3157762438136656 -0.00017239587846332364 0.1304662555083184 144 238 144 0.5
0.3157342743308249 -0.0001697455258535459 0.13041596151820606 144 238 144 0.5
0.3156912651058975 -0.00016720724071053576 0.1303647869043228 144 238 144 0.5
0.3156472002200241 -0.00016478332723632986 0.13031271772754985 144 238 144 0.5
0.31560206375434463 -0.00016247608963294326 0.13025974004876795 144 238 144 0.5
0.3155558397909156 -0.0001602878319985829 0.13020583992966953 144 238 144 0.5
0.3155085197373353 -0.0001582200283245817 0.13015100992054646 144 238 144 0.5
0.31546012003502233 -0.00015627131585009872 0.13009526474539995 144 238 144 0.5
0.31541066246838717 -0.00015443972636367296 0.13003862386078696 144 238 144 0.5
0.3153601688218403 -0.00015272329165382656 0.12998110672326407 144 238 144 0.5
0.31530866087979187 -0.00015112004350908745 0.12992273278938796 144 238 144 0.5
0.3152561604266523 -0.00014962801371798352 0.12986352151571529 144 238 144 0.5
0.31520268924683165 -0.00014824523406903886 0.12980349235880256 144 238 144 0.5
0.3151482691247407 -0.00014696973635078926 0.1297426647752068 144 238 144 0.5
0.3150929218447894 -0.00014579955235175844 0.12968105822148449 144 238 144 0.5
0.31503666919138834 -0.00014473271386047438 0.12961869215419236 144 238 144 0.5
0.31497953294894765 -0.00014376725266546493 0.12955558602988707 144 238 144 0.5
0.3149215349018779 -0.00014290120055525797 0.12949175930512535 144 238 144 0.5
0.31486269683458895 -0.00014213258931837936 0.1294272314364636 144 238 144 0.5
0.31480304053149166 -0.00014145945074336134 0.12936202188045895 144 238 144 0.5
0.31474258777699615 -0.00014087981661872948 0.12929615009366785 144 238 144 0.5
0.3146813603555127 -0.00014039171873301166 0.129229635532647 144 238 144 0.5
0.3146193800514517 -0.00013999318887473582 0.12916249765395307 144 238 144 0.5
0.3145566686492232 -0.00013968225883242904 0.12909475591414254 144 238 144 0.5
0.314493247933238 -0.00013945696039462097 0.1290264297697725 144 238 144 0.5
0.31442913968790637 -0.00013931532534983853 0.12895753867739945 144 238 144 0.5
0.31436436569763826 -0.0001392553854866096 0.12888810209358004 144 238 144 0.5
0.31429894774684436 -0.00013927517259346197 0.12881813947487095 144 238 144 0.5
0.3142329076199346 -0.00013937271845892407 0.12874767027782869 144 238 144 0.5
0.3141662671013198 -0.00013954605487152317 0.12867671395901026 144 238 144 0.5
0.31409904797541005 -0.0001397932136197873 0.12860528997497225 144 238 144 0.5
0.3140312720266157 -0.0001401122264922444 0.12853341778227131 144 238 144 0.5
0.313962961039347 -0.00014050112527742227 0.12846111683746406 144 238 144 0.5
0.3138941367980143 -0.00014095794176384888 0.1283884065971072 144 238 144 0.5
0.3138248210870279 -0.0001414807077400537 0.1283153065177573 144 238 144 0.5
0.3137550356907984 -0.0001420674549945616 0.12824183605597134 144 238 144 0.5
0.31368480239373586 -0.0001427162153159019 0.12816801466830582 144 238 144 0.5
0.3136141429802507 -0.00014342502049260244 0.12809386181131746 144 238 144 0.5
0.31354307923475316 -0.00014419190231319113 0.12801939694156292 144 238 144 0.5
0.31347163294165353 -0.00014501489256619834 0.12794463951559862 144 238 144 0.5
0.31339982588536236 -0.00014589202304014716 0.12786960898998176 144 238 144 0.5
0.3133276798502899 -0.00014682132552356784 0.1277943248212687 144 238 144 0.5
0.31325521662084654 -0.0001478008318049882 0.12771880646601622 144 238 144 0.5
0.31318245798144245 -0.0001488285736729362 0.12764307338078096 144 238 144 0.5
0.31310942571648775 -0.0001499025829159428 0.12756714502211938 144 238 144 0.5
0.3130361416103933 -0.00015102089132252978 0.12749104084658855 144 238 144 0.5
0.3129626274475692 -0.00015218153068122806 0.12741478031074505 144 238 144 0.5
0.3128889050124256 -0.00015338253278056546 0.12733838287114546 144 238 144 0.5
0.31281499608937313 -0.0001546219294090699 0.12726186798434647 144 238 144 0.5
0.3127409224628219 -0.00015589775235526929 0.1271852551069048 144 238 144 0.5
0.31266670591718215 -0.00015720803340769525 0.1271085636953769 144 238 144 0.5
0.31259236823686454 -0.0001585508043548683 0.12703181320631987 144 238 144 0.5
0.3125179312062792 -0.0001599240969853199 0.12695502309629014 144 238 144 0.5
0.31244341660983643 -0.00016132594308757798 0.1268782128218445 144 238 144 0.5
0.3123688462319467 -0.00016275437445017042 0.12680140183953953 144 238 144 0.5
0.31229424185702004 -0.00016420742286162935 0.12672460960593174 144 238 144 0.5
0.31221962526946706 -0.0001656831201104743 0.12664785557757824 144 238 144 0.5
0.3121450182536982 -0.00016717949798523732 0.12657115921103548 144 238 144 0.5
0.3120704425941234 -0.00016869458827444624 0.12649453996286014 144 238 144 0.5
0.3119959200751534 -0.000170226422766629 0.12641801728960889 144 238 144 0.5
0.311921472481198 -0.00017177303325031785 0.12634161064783822 144 238 144 0.5
0.31184712159666805 -0.00017333245151403197 0.12626533949410526 144 238 144 0.5
0.3117728892059737 -0.00017490270934630348 0.1261892232849664 144 238 144 0.5
0.3116987970935253 -0.00017648183853566046 0.12611328147697842 144 238 144 0.5
0.31162486704373304 -0.00017806787087063064 0.12603753352669794 144 238 144 0.5
0.3115511208410072 -0.00017965883813974654 0.12596199889068144 144 238 144 0.5
0.3114775802697585 -0.00018125277213152692 0.125886697025486 144 238 144 0.5
0.311404267114397 -0.00018284770463450423 0.1258116473876681 144 238 144 0.5
0.31133120315933305 -0.00018444166743720637 0.12573686943378445 144 238 144 0.5
0.31125841018897693 -0.00018603269232816123 0.1256623826203917 144 238 144 0.5
0.31118590998773904 -0.00018761881109589666 0.12558820640404658 144 238 144 0.5
0.31111372434002954 -0.00018919805552894504 0.12551436024130547 144 238 144 0.5
0.311041875030259 -0.00019076845741582528 0.12544086358872555 144 238 144 0.5
0.31097038384283776 -0.0001923280485450698 0.12536773590286326 144 238 144 0.5
0.310899272562176 -0.00019387486070520643 0.1252949966402753 144 238 144 0.5
0.31082856297268413 -0.00019540692568476313 0.1252226652575183 144 238 144 0.5
0.31075827685877216 -0.00019692227527227205 0.12515076121114882 144 238 144 0.5
0.310688436004851 -0.00019841894125625248 0.12507930395772388 144 238 144 0.5
0.3106190621953306 -0.00019989495542523656 0.12500831295379997 144 238 144 0.5
0.3105501772146214 -0.0002013483495677522 0.12493780765593379 144 238 144 0.5
0.31048180284713367 -0.00020277715547232733 0.124867807520682 144 238 144 0.5
0.31041396087727763 -0.00020417940492749385 0.1247983320046011 144 238 144 0.5
0.31034667308946395 -0.00020555312972177147 0.12472940056424814 144 238 144 0.5
0.31027996126810264 -0.00020689636164369235 0.12466103265617962 144 238 144 0.5
0.31021384719760425 -0.00020820713248178416 0.12459324773695221 144 238 144 0.5
0.31014835266237895 -0.00020948347402457494 0.12452606526312261 144 238 144 0.5
0.31008349944683716 -0.00021072341806059253 0.1244595046912475 144 238 144 0.5
0.31001930933538896 -0.0002119249963783682 0.12439358547788339 144 238 144 0.5
0.30995580411244505 -0.000213086240766423 0.12432832707958727 144 238 144 0.5
0.3098930055624156 -0.00021420518301328814 0.12426374895291568 144 238 144 0.5
0.30983093546971097 -0.00021527985490749175 0.12419987055442532 144 238 144 0.5
0.30976961561874145 -0.0002163082882375616 0.1241367113406728 144 238 144 0.5
0.3097090677939172 -0.0002172885147920283 0.12407429076821472 144 238 144 0.5
0.3096493137796489 -0.00021821856635941415 0.12401262829360803 144 238 144 0.5
0.3095903753603466 -0.00021909647472824993 0.12395174337340925 144 238 144 0.5
0.3095322743204209 -0.00021992027168706355 0.1238916554641751 144 238 144 0.5
0.3094750324442819 -0.00022068798902438288 0.12383238402246226 144 238 144 0.5
0.3094186715163397 -0.00022139765852873764 0.12377394850482716 144 238 144 0.5
0.3093632133210052 -0.00022204731198865183 0.12371636836782691 144 238 144 0.5
0.3093086796426885 -0.00022263498119265535 0.123659663068018 144 238 144 0.5
0.3092550922657997 -0.0002231586979292761 0.12360385206195709 144 238 144 0.5
0.30920247297474945 -0.00022361649398704202 0.12354895480620086 144 238 144 0.5
0.30915084355394784 -0.00022400640115448098 0.123494990757306 144 238 144 0.5
0.30910022578780516 -0.00022432645122012166 0.12344197937182905 144 238 144 0.5
0.3090506414607321 -0.0002245746759724901 0.12338994010632696 144 238 144 0.5
0.30900211235713865 -0.0002247491072001152 0.12333889241735631 144 238 144 0.5
0.3089546591007454 -0.00022484787739808127 0.12328885473474752 144 238 144 0.5
0.3089082834128577 -0.0002248707591180572 0.12323982876758176 144 238 144 0.5
0.30886297163629367 -0.00022481885921683622 0.12319180262139624 144 238 144 0.5
0.30881870966738545 -0.00022469332329032296 0.12314476400677458 144 238 144 0.5
0.3087754834024649 -0.0002244952969344218 0.1230987006343 144 238 144 0.5
0.30873327873786405 -0.00022422592574503715 0.12305360021455584 144 238 144 0.5
0.3086920815699146 -0.00022388635531807343 0.12300945045812536 144 238 144 0.5
0.3086518777949486 -0.0002234777312494338 0.12296623907559193 144 238 144 0.5
0.30861265330929827 -0.00022300119913502495 0.12292395377753897 144 238 144 0.5
0.3085743940092952 -0.0002224579045707503 0.12288258227454983 144 238 144 0.5
0.30853708579127154 -0.00022184899315251422 0.12284211227720776 144 238 144 0.5
0.3085007145515591 -0.00022117561047622108 0.12280253149609612 144 238 144 0.5
0.30846526618648995 -0.00022043890213777534 0.12276382764179829 144 238 144 0.5
0.30843072659239573 -0.00021964001373307897 0.12272598842489744 144 238 144 0.5
0.30839708166560886 -0.0002187800908580411 0.12268900155597717 144 238 144 0.5
0.308364317302461 -0.00021786027910856374 0.1226528547456207 144 238 144 0.5
0.3083324193992841 -0.00021688172408055144 0.12261753570441135 144 238 144 0.5
0.30830137385241013 -0.0002158455713699086 0.12258303214293248 144 238 144 0.5
0.308271166558171 -0.00021475296657253639 0.12254933177176731 144 238 144 0.5
0.3082417834128989 -0.00021360505528434547 0.12251642230149945 144 238 144 0.5
0.3082132103129253 -0.0002124029831012372 0.12248429144271204 144 238 144 0.5
0.30818543315458263 -0.00021114789561911597 0.12245292690598848 144 238 144 0.5
0.30815843783420255 -0.00020984093843388627 0.12242231640191205 144 238 144 0.5
0.308132210248117 -0.00020848325714144852 0.12239244764106609 144 238 144 0.5
0.3081067362926581 -0.0002070759973377149 0.12236330833403404 144 238 144 0.5
0.30808200186415763 -0.00020562030461858594 0.12233488619139918 144 238 144 0.5
0.30805799285894764 -0.0002041173245799661 0.12230716892374484 144 238 144 0.5
0.3080346951733601 -0.00020256820281775982 0.12228014424165437 144 238 144 0.5
0.3080120947037267 -0.00020097408492786685 0.12225379985571103 144 238 144 0.5
0.3079901773463796 -0.0001993361165062007 0.12222812347649831 144 238 144 0.5
0.30796892899765094 -0.00019765544314866138 0.12220310281459949 144 238 144 0.5
0.3079483355538722 -0.0001959332104511531 0.12217872558059789 144 238 144 0.5
0.3079283829113757 -0.00019417056400958051 0.12215497948507682 144 238 144 0.5
0.3079090569664931 -0.0001923686494198479 0.12213185223861966 144 238 144 0.5
0.30789034361555656 -0.00019052861227785434 0.12210933155180971 144 238 144 0.5
0.307872228754898 -0.0001886515981795148 0.12208740513523036 144 238 144 0.5
0.3078546982808492 -0.0001867387527207285 0.12206606069946498 144 238 144 0.5
0.3078377380897423 -0.00018479122149739978 0.1220452859550968 144 238 144 0.5
0.30782133407790924 -0.00018281015010543318 0.12202506861270927 144 238 144 0.5
0.30780547214168175 -0.00018079668414072714 0.12200539638288559 144 238 144 0.5
0.307790138177392 -0.00017875196919919773 0.12198625697620924 144 238 144 0.5
0.3077753180813719 -0.00017667715087674356 0.12196763810326351 144 238 144 0.5
0.30776099774995314 -0.00017457337476926903 0.12194952747463171 144 238 144 0.5
0.3077471630794681 -0.00017244178647267863 0.12193191280089723 144 238 144 0.5
0.3077337999662483 -0.00017028353158287052 0.12191478179264333 144 238 144 0.5
0.30772089430662597 -0.00016809975569576148 0.12189812216045345 144 238 144 0.5
0.30770843199693293 -0.00016589160440724971 0.12188192161491088 144 238 144 0.5
0.3076963989335011 -0.00016366022331323966 0.12186616786659893 144 238 144 0.5
0.3076847810126626 -0.00016140675800963578 0.121850848626101 144 238 144 0.5
0.30767356413074914 -0.0001591323540923424 0.12183595160400038 144 238 144 0.5
0.3076627341840928 -0.00015683815715725741 0.12182146451088038 144 238 144 0.5
0.3076522770690255 -0.0001545253128002983 0.12180737505732443 144 238 144 0.5
0.3076421786818792 -0.000152194966617363 0.12179367095391584 144 238 144 0.5
0.30763242491898574 -0.00014984826420435583 0.12178033991123792 144 238 144 0.5
0.3076230016766773 -0.0001474863511571813 0.12176736963987402 144 238 144 0.5
0.30761389485128554 -0.000145110373071737 0.12175474785040746 144 238 144 0.5
0.3076050903391426 -0.00014272147554394082 0.12174246225342163 144 238 144 0.5
0.3075965740365803 -0.00014032080416969046 0.12173050055949984 144 238 144 0.5
0.3075883318399307 -0.00013790950454489038 0.12171885047922543 144 238 144 0.5
0.30758034964552566 -0.00013548872226544487 0.12170749972318172 144 238 144 0.5
0.30757261334969715 -0.00013305960292725154 0.12169643600195207 144 238 144 0.5
0.3075651088487772 -0.00013062329212622855 0.12168564702611984 144 238 144 0.5
0.30755782203909754 -0.00012818093545827343 0.12167512050626829 144 238 144 0.5
0.3075507388169903 -0.00012573367851929064 0.12166484415298087 144 238 144 0.5
0.3075438450787874 -0.00012328266690518448 0.12165480567684087 144 238 144 0.5
0.3075371267208208 -0.00012082904621185948 0.12164499278843159 144 238 144 0.5
0.3075305696394222 -0.00011837396203521291 0.12163539319833638 144 238 144 0.5
0.30752415973092384 -0.00011591855997116332 0.12162599461713865 144 238 144 0.5
0.30751788289165766 -0.00011346398561560806 0.12161678475542168 144 238 144 0.5
0.30751172501795543 -0.00011101138456445152 0.12160775132376882 144 238 144 0.5
0.30750567200614914 -0.00010856190241359813 0.12159888203276341 144 238 144 0.5
0.3074997097525708 -0.00010611668475894532 0.12159016459298874 144 238 144 0.5
0.3074938241535523 -0.00010367687719641148 0.12158158671502825 144 238 144 0.5
0.3074880011054257 -0.00010124362532189403 0.12157313610946521 144 238 144 0.5
0.3074822265045226 -9.881807473129734e-05 0.12156480048688295 144 238 144 0.5
0.3074764862471755 -9.640137102052588e-05 0.12155656755786488 144 238 144 0.5
0.3074707662297159 -9.399465978547713e-05 0.12154842503299426 144 238 144 0.5
0.3074650523484758 -9.159908662206931e-05 0.12154036062285446 144 238 144 0.5
0.30745933049978724 -8.92157971261999e-05 0.12153236203802883 144 238 144 0.5
0.30745358657998223 -8.684593689377336e-05 0.12152441698910073 144 238 144 0.5
0.3074478064853926 -8.449065152069404e-05 0.12151651318665345 144 238 144 0.5
0.3074419761123504 -8.215108660285972e-05 0.12150863834127032 144 238 144 0.5
0.3074360813571875 -7.98283877361882e-05 0.12150078016353473 144 238 144 0.5
0.3074301081162356 -7.752370051657713e-05 0.12149292636403 144 238 144 0.5
0.30742404228582715 -7.523817053993096e-05 0.12148506465333947 144 238 144 0.5
0.3074178697622937 -7.297294340215408e-05 0.12147718274204647 144 238 144 0.5
0.3074115764419674 -7.07291646991509e-05 0.12146926834073433 144 238 144 0.5
0.3074051482211801 -6.850798002681952e-05 0.1214613091599864 144 238 144 0.5
0.30739857099626366 -6.631053498107705e-05 0.12145329291038605 144 238 144 0.5
0.3073918306635503 -6.413797515782152e-05 0.1214452073025166 144 238 144 0.5
0.3073849131193717 -6.199144615295732e-05 0.12143704004696138 144 238 144 0.5
0.30737780426005984 -5.9872093562388874e-05 0.1214287788543037 144 238 144 0.5
0.3073704899819469 -5.778106298201468e-05 0.12142041143512693 144 238 144 0.5
0.30736295618136444 -5.571950000775105e-05 0.12141192550001441 144 238 144 0.5
0.30735518875464474 -5.3688550235496426e-05 0.12140330875954948 144 238 144 0.5
0.3073471735981195 -5.168935926115519e-05 0.12139454892431549 144 238 144 0.5
0.30733889660812086 -4.972307268063175e-05 0.12138563370489575 144 238 144 0.5
0.3073303436809806 -4.779083608982504e-05 0.12137655081187361 144 238 144 0.5
0.3073215007130308 -4.5893795084650546e-05 0.12136728795583243 144 238 144 0.5
0.3073123536006034 -4.403309526100705e-05 0.12135783284735555 144 238 144 0.5
0.30730288824376345 -4.220988183673014e-05 0.1213481732000566 144 238 144 0.5
0.30729309484934114 -4.0424863879927016e-05 0.12133830022343908 144 238 144 0.5
0.30728297622573525 -3.867747428715202e-05 0.12132821535595917 144 238 144 0.5
0.3072725374740237 -3.6966913773394914e-05 0.12131792189708802 144 238 144 0.5
0.3072617836952846 -3.529238305366003e-05 0.12130742314629679 144 238 144 0.5
0.30725071999059583 -3.3653082842937017e-05 0.12129672240305657 144 238 144 0.5
0.30723935146103537 -3.2048213856220454e-05 0.1212858229668385 144 238 144 0.5
0.3072276832076813 -3.0476976808504916e-05 0.12127472813711375 144 238 144 0.5
0.30721572033161143 -2.8938572414780648e-05 0.12126344121335333 144 238 144 0.5
0.30720346793390385 -2.7432201390051006e-05 0.12125196549502848 144 238 144 0.5
0.3071909311156366 -2.5957064449306127e-05 0.12124030428161028 144 238 144 0.5
0.3071781149778875 -2.451236230754061e-05 0.12122846087256989 144 238 144 0.5
0.30716502462173456 -2.309729567974901e-05 0.12121643856737838 144 238 144 0.5
0.3071516651482559 -2.1711065280921994e-05 0.1212042406655069 144 238 144 0.5
0.30713804165852937 -2.0352871826062072e-05 0.1211918704664266 144 238 144 0.5
0.30712415925363296 -1.902191603015982e-05 0.12117933126960861 144 238 144 0.5
0.3071100230346447 -1.7717398608209804e-05 0.121166626374524 144 238 144 0.5
0.3070956381026424 -1.6438520275206622e-05 0.12115375908064395 144 238 144 0.5
0.30708100955870427 -1.518448174614484e-05 0.12114073268743956 144 238 144 0.5
0.30706614250390807 -1.3954483736015571e-05 0.12112755049438195 144 238 144 0.5
0.30705104203933203 -1.2747726959820415e-05 0.12111421580094227 144 238 144 0.5
0.30703571326605394 -1.1563412132550403e-05 0.12110073190659167 144 238 144 0.5
0.30702016128515186 -1.0400739969200116e-05 0.1210871021108012 144 238 144 0.5
0.30700439119770373 -9.258911184764124e-06 0.12107332971304208 144 238 144 0.5
0.30698840810478734 -8.137126494233846e-06 0.1210594180127853 144 238 144 0.5
0.30697221710748107 -7.034586612610258e-06 0.12104537030950217 144 238 144 0.5
0.3069558233068626 -5.9504922548847175e-06 0.12103118990266369 144 238 144 0.5
0.30693923180401 -4.884044136051798e-06 0.12101688009174101 144 238 144 0.5
0.3069224477000013 -3.834442971106085e-06 0.12100244417620529 144 238 144 0.5
0.30690547609591434 -2.800889475039216e-06 0.12098788545552756 144 238 144 0.5
0.3068883220928271 -1.7825843628516896e-06 0.12097320722917905 144 238 144 0.5
0.30687099079181784 -7.787283495350966e-07 0.1209584127966309 144 238 144 0.5
0.3068534872939642 2.1147784991597086e-07 0.12094350545735415 144 238 144 0.5
0.3068358167003444 1.18883352050694e-06 0.12092848851082001 144 238 144 0.5
0.3068179841120361 2.1541379472459686e-06 0.12091336525649948 144 238 144 0.5
0.3067999946301176 3.108190415132966e-06 0.12089813899386383 144 238 144 0.5
0.3067818533556667 4.051790209176123e-06 0.1208828130223841 144 238 144 0.5
0.3067635653897615 4.985736614380868e-06 0.1208673906415315 144 238 144 0.5
0.30674513583348 5.910828915752608e-06 0.12085187515077703 144 238 144 0.5
0.30672656978789997 6.827866398296775e-06 0.12083626984959192 144 238 144 0.5
0.3067078723540995 7.737648347021369e-06 0.12082057803744722 144 238 144 0.5
0.30668904863315655 8.640974046926618e-06 0.12080480301381413 144 238 144 0.5
0.3066701037261492 9.538642783020555e-06 0.12078894807816376 144 238 144 0.5
0.3066510427341554 1.0431453840308591e-05 0.12077301652996723 144 238 144 0.5
0.30663187075825304 1.1320206503796151e-05 0.12075701166869565 144 238 144 0.5
0.30661259289952 1.2205700058491176e-05 0.12074093679382009 144 238 144 0.5
0.3065932142590345 1.308873378939404e-05 0.12072479520481182 144 238 144 0.5
0.3065737399378744 1.397010698151269e-05 0.12070859020114186 144 238 144 0.5
0.30655417503711774 1.4850618919852545e-05 0.12069232508228138 144 238 144 0.5
0.3065345246578423 1.573106888941902e-05 0.12067600314770148 144 238 144 0.5
0.30651479390112635 1.6612256175220064e-05 0.12065962769687325 144 238 144 0.5
0.3064949878680477 1.749498006225606e-05 0.12064320202926794 144 238 144 0.5
0.3064751116596843 1.8380039835534946e-05 0.12062672944435657 144 238 144 0.5
0.30645517037711417 1.9268234780062134e-05 0.1206102132416103 144 238 144 0.5
0.30643516912141533 2.0160364180843055e-05 0.12059365672050026 144 238 144 0.5
0.30641511299366575 2.105722732288312e-05 0.12057706318049757 144 238 144 0.5
0.3063950070949433 2.1959623491190342e-05 0.12056043592107334 144 238 144 0.5
0.3063748565263261 2.2868351970764985e-05 0.12054377824169872 144 238 144 0.5
0.3063546663888919 2.378421204661503e-05 0.12052709344184481 144 238 144 0.5
0.306334441783719 2.4708003003745908e-05 0.12051038482098278 144 238 144 0.5
0.30631418781188524 2.5640524127163042e-05 0.12049365567858378 144 238 144 0.5
0.30629390957446845 2.658257470187454e-05 0.12047690931411878 144 238 144 0.5
0.3062736121725468 2.7534954012880465e-05 0.12046014902705908 144 238 144 0.5
0.3062533007071982 2.8498461345188896e-05 0.12044337811687576 144 238 144 0.5
0.30623298027950063 2.9473895983805257e-05 0.12042659988303993 144 238 144 0.5
0.3062126559905321 3.0462057213734975e-05 0.1204098176250227 144 238 144 0.5
0.30619233294137044 3.1463744319986335e-05 0.12039303464229516 144 238 144 0.5
0.30617201623309376 3.2479756587559054e-05 0.12037625423432852 144 238 144 0.5
0.3061517109667801 3.351089330146139e-05 0.12035947970059394 144 238 144 0.5
0.3061314222435073 3.455795374669875e-05 0.12034271434056242 144 238 144 0.5
0.30611115516435344 3.562173720827658e-05 0.1203259614537052 144 238 144 0.5
0.30609091483039647 3.6703042971200265e-05 0.12030922433949331 144 238 144 0.5
0.3060707063427142 3.780267032047843e-05 0.12029250629739788 144 238 144 0.5
0.30605053480238487 3.892141854111018e-05 0.12027581062689013 144 238 144 0.5
0.3060304053104863 4.0060086918104075e-05 0.12025914062744116 144 238 144 0.5
0.30601032296809655 4.121947473646551e-05 0.12024249959852201 144 238 144 0.5
0.3059902928762935 4.240038128119994e-05 0.12022589083960392 144 238 144 0.5
0.3059703201361552 4.360360583731622e-05 0.12020931765015794 144 238 144 0.5
0.30595040984875965 4.4829947689812923e-05 0.12019278332965522 144 238 144 0.5
0.30593056711518474 4.608020612369886e-05 0.12017629117756687 144 238 144 0.5
0.30591079703650853 4.7355180423979464e-05 0.12015984449336409 144 238 144 0.5
0.30589110471380887 4.865566987566013e-05 0.12014344657651789 144 238 144 0.5
0.3058714952481639 4.998247376375013e-05 0.12012710072649947 144 238 144 0.5
0.3058519737406515 5.13363913732473e-05 0.12011081024277993 144 238 144 0.5
0.30583254529234977 5.27182219891608e-05 0.12009457842483046 144 238 144 0.5
0.3058132150043365 5.412876489649607e-05 0.12007840857212211 144 238 144 0.5
0.30579398797768975 5.5568819380258516e-05 0.12006230398412604 144 238 144 0.5
0.3057748693134876 5.703918472545781e-05 0.12004626796031334 144 238 144 0.5
0.3057558641128078 5.854066021709096e-05 0.12003030380015518 144 238 144 0.5
0.30573697747672857 6.007404514016756e-05 0.1200144148031227 144 238 144 0.5
0.3057182145063278 6.164013877969302e-05 0.119998604268687 144 238 144 0.5
0.3056995803026833 6.323974042067275e-05 0.11998287549631917 144 238 144 0.5
0.3056810799668734 6.487364934811219e-05 0.1199672317854904 144 238 144 0.5
0.3056627185999756 6.654266484702157e-05 0.11995167643567173 144 238 144 0.5
0.30564450130306836 6.824758620239678e-05 0.1199362127463344 144 238 144 0.5
0.3056264331772294 6.998921269924794e-05 0.1199208440169495 144 238 144 0.5
0.3056085193235368 7.17683436225805e-05 0.11990557354698811 144 238 144 0.5
0.3055907648430684 7.358577825739987e-05 0.1198904046359214 144 238 144 0.5
0.3055731748369023 7.54423158887168e-05 0.11987534058322041 144 238 144 0.5
0.3055557544061164 7.733875580152614e-05 0.11986038468835641 144 238 144 0.5
0.30553850865178867 7.927589728083854e-05 0.11984554025080044 144 238 144 0.5
0.30552144239540996 8.125446841891185e-05 0.11983081038916522 144 238 144 0.5
0.30550455675668964 8.327425470448973e-05 0.11981619582746804 144 238 144 0.5
0.3054878502335593 8.533437402951512e-05 0.11980169559375961 144 238 144 0.5
0.3054713212684538 8.743393015448238e-05 0.11978730868019108 144 238 144 0.5
0.30545496830380764 8.957202683990347e-05 0.11977303407891357 144 238 144 0.5
0.30543878978205574 9.174776784628454e-05 0.11975887078207814 144 238 144 0.5
0.3054227841456328 9.396025693413174e-05 0.11974481778183597 144 238 144 0.5
0.3054069498369734 9.620859786395116e-05 0.11973087407033808 144 238 144 0.5
0.3053912852985124 9.849189439625556e-05 0.11971703863973561 144 238 144 0.5
0.3053757889726845 0.00010080925029153804 0.1197033104821797 144 238 144 0.5
0.30536045930192457 0.00010315976931031121 0.11968968858982151 144 238 144 0.5
0.30534529472866695 0.00010554255521308116 0.11967617195481205 144 238 144 0.5
0.3053302936953468 0.00010795671176035407 0.11966275956930249 144 238 144 0.5
0.3053154546443985 0.00011040134271264311 0.11964945042544389 144 238 144 0.5
0.3053007760182571 0.00011287555183044047 0.11963624351538746 144 238 144 0.5
0.3052862562593572 0.0001153784428742592 0.11962313783128424 144 238 144 0.5
0.3052718938101333 0.00011790911960460545 0.11961013236528534 144 238 144 0.5
0.3052576871130205 0.00012046668578198539 0.11959722610954189 144 238 144 0.5
0.3052436346104533 0.00012305024516691252 0.11958441805620497 144 238 144 0.5
0.3052297347448665 0.00012565890151987826 0.11957170719742576 144 238 144 0.5
0.3052159859586948 0.00012829175860139608 0.11955909252535535 144 238 144 0.5
0.3052023866943729 0.0001309479201719721 0.11954657303214479 144 238 144 0.5
0.3051889353943356 0.0001336264899921125 0.11953414770994525 144 238 144 0.5
0.3051756305010176 0.00013632657182232341 0.11952181555090786 144 238 144 0.5
0.30516247045685363 0.0001390472694231188 0.11950957554718365 144 238 144 0.5
0.3051494537042783 0.0001417876865549892 0.1194974266909238 144 238 144 0.5
0.30513657868572663 0.00014454692697844854 0.1194853679742794 144 238 144 0.5
0.30512384384363306 0.0001473240944540029 0.11947339838940156 144 238 144 0.5
0.3051112476204325 0.00015011829274215856 0.11946151692844144 144 238 144 0.5
0.30509878845855953 0.00015292862560342953 0.11944972258355005 144 238 144 0.5
0.30508646480044904 0.00015575419679830606 0.11943801434687859 144 238 144 0.5
0.3050742750885356 0.00015859411008730217 0.11942639121057812 144 238 144 0.5
0.3050622177652541 0.0001614474692309241 0.11941485216679983 144 238 144 0.5
0.305050291273039 0.0001643133779896779 0.11940339620769473 144 238 144 0.5
0.30503849405432537 0.00016719094012407804 0.11939202232541397 144 238 144 0.5
0.3050268245515477 0.0001700792593946141 0.11938072951210871 144 238 144 0.5
0.30501528120714083 0.00017297743956180055 0.11936951675993 144 238 144 0.5
0.30500386246353944 0.00017588458438614347 0.11935838306102899 144 238 144 0.5
0.3049925667631783 0.00017879979762814896 0.11934732740755676 144 238 144 0.5
0.30498139254849205 0.00018172218304832324 0.11933634879166445 144 238 144 0.5
0.3049703382619155 0.0001846508444071808 0.11932544620550312 144 238 144 0.5
0.30495940234588337 0.00018758488546521105 0.11931461864122395 144 238 144 0.5
0.3049485832428304 0.00019052340998292844 0.11930386509097804 144 238 144 0.5
0.30493787939519124 0.00019346552172083917 0.11929318454691648 144 238 144 0.5
0.3049272892454007 0.00019641032443944932 0.11928257600119038 144 238 144 0.5
0.3049168112358934 0.00019935692189927356 0.11927203844595086 144 238 144 0.5
0.3049064438091043 0.00020230441786080105 0.11926157087334902 144 238 144 0.5
0.3048961854074679 0.0002052519160845465 0.11925117227553599 144 238 144 0.5
0.304886034473419 0.00020819852033101595 0.11924084164466289 144 238 144 0.5
0.3048759894493923 0.00021114333436071553 0.11923057797288081 144 238 144 0.5
0.30486604877782253 0.00021408546193415982 0.11922038025234082 144 238 144 0.5
0.3048562109011445 0.00021702400681183816 0.11921024747519414 144 238 144 0.5
0.30484647426179295 0.00021995807275426507 0.11920017863359182 144 238 144 0.5
0.30483683730220246 0.0002228867635219467 0.11919017271968495 144 238 144 0.5
0.30482729846480794 0.00022580918287538928 0.11918022872562468 144 238 144 0.5
0.3048178561920439 0.00022872443457510707 0.11917034564356209 144 238 144 0.5
0.3048085089263452 0.00023163162238158973 0.11916052246564832 144 238 144 0.5
0.3047992551101466 0.00023452985005535163 0.11915075818403448 144 238 144 0.5
0.3047900931858829 0.00023741822135689905 0.11914105179087169 144 238 144 0.5
0.3047810215959886 0.00024029584004673797 0.11913140227831102 144 238 144 0.5
0.30477203878289855 0.00024316180988537457 0.11912180863850362 144 238 144 0.5
0.30476314318904746 0.0002460152346333232 0.11911226986360055 144 238 144 0.5
0.30475433325687 0.0002488552180510737 0.11910278494575299 144 238 144 0.5
0.3047456074288011 0.00025168086389914027 0.11909335287711204 144 238 144 0.5
0.30473696414727536 0.00025449127593802907 0.11908397264982878 144 238 144 0.5
0.3047284018547273 0.00025728555792824636 0.11907464325605434 144 238 144 0.5
0.304719918993592 0.00026006281363030606 0.11906536368793981 144 238 144 0.5
0.30471151400630414 0.00026282214680469856 0.11905613293763634 144 238 144 0.5
0.3047031853352983 0.00026556266121193785 0.11904694999729504 144 238 144 0.5
0.30469493142300913 0.0002682834606125302 0.11903781385906698 144 238 144 0.5
0.30468675071187157 0.0002709836487669815 0.11902872351510328 144 238 144 0.5
0.3046786416443203 0.00027366232943580577 0.11901967795755508 144 238 144 0.5
0.3046706026627899 0.0002763186063794937 0.1190106761785735 144 238 144 0.5
0.3046626322097153 0.0002789515833585593 0.11900171717030962 144 238 144 0.5
0.30465472872753113 0.0002815603641335085 0.11899279992491454 144 238 144 0.5
0.30464689065867206 0.00028414405246484747 0.11898392343453942 144 238 144 0.5
0.304639116445573 0.00028670175211308247 0.11897508669133539 144 238 144 0.5
0.3046314045306685 0.0002892325668387268 0.11896628868745343 144 238 144 0.5
0.30462375335639336 0.000291735600402272 0.1189575284150448 144 238 144 0.5
0.30461616136518227 0.0002942099565642316 0.11894880486626054 144 238 144 0.5
0.30460862699947006 0.0002966547390851117 0.11894011703325177 144 238 144 0.5
0.30460114870169136 0.0002990690517254186 0.11893146390816962 144 238 144 0.5
0.30459372491428083 0.00030145199824566495 0.11892284448316515 144 238 144 0.5
0.30458635407967344 0.0003038026824063434 0.11891425775038957 144 238 144 0.5
0.30457903464030367 0.000306120207967967 0.11890570270199388 144 238 144 0.5
0.3045717650386064 0.0003084036786910417 0.11889717833012928 144 238 144 0.5
0.3045645437170163 0.00031065219833607393 0.11888868362694684 144 238 144 0.5
0.3045573691179681 0.0003128648706635758 0.11888021758459764 144 238 144 0.5
0.3045502396838965 0.00031504079943404104 0.11887177919523288 144 238 144 0.5
0.3045431538572364 0.00031717908840798206 0.11886336745100362 144 238 144 0.5
0.30453611008042225 0.00031927884134590493 0.11885498134406096 144 238 144 0.5
0.304529106795889 0.00032133916200831596 0.11884661986655604 144 238 144 0.5
0.30452214244607123 0.0003233591541557211 0.11883828201063992 144 238 144 0.5
0.30451521547340377 0.00032533792154863225 0.11882996676846377 144 238 144 0.5
0.3045083243203213 0.0003272745679475442 0.11882167313217869 144 238 144 0.5
0.3045014674292586 0.00032916819711296876 0.11881340009393575 144 238 144 0.5
0.3044946432426504 0.0003310179128054121 0.11880514664588614 144 238 144 0.5
0.3044878502029313 0.0003328228187853803 0.1187969117801809 144 238 144 0.5
0.30448108675253616 0.0003345820188133846 0.11878869448897114 144 238 144 0.5
0.3044743513338996 0.00033629461664992096 0.11878049376440807 144 238 144 0.5
0.30446764238593405 0.00033795971698389433 0.11877230859630246 144 238 144 0.5
0.3044609569724825 0.00033957678692156916 0.11876413706090222 144 238 144 0.5
0.30445428870132024 0.00034114620446089983 0.11875597493832644 144 238 144 0.5
0.30444763064585056 0.00034266848844059707 0.11874781765367026 144 238 144 0.5
0.3044409758794765 0.0003441441576993585 0.11873966063202872 144 238 144 0.5
0.30443431747560096 0.0003455737310758949 0.11873149929849681 144 238 144 0.5
0.30442764850762727 0.0003469577274089126 0.1187233290781696 144 238 144 0.5
0.3044209620489584 0.0003482966655371181 0.11871514539614214 144 238 144 0.5
0.30441425117299753 0.0003495910642992211 0.11870694367750947 144 238 144 0.5
0.3044075089531476 0.000350841442533921 0.11869871934736666 144 238 144 0.5
0.3044007284628119 0.0003520483190799274 0.11869046783080871 144 238 144 0.5
0.30439390277539347 0.00035321221277594714 0.11868218455293074 144 238 144 0.5
0.3043870249642953 0.00035433364246068635 0.11867386493882771 144 238 144 0.5
0.3043800881029206 0.00035541312697285135 0.11866550441359475 144 238 144 0.5
0.3043730852646725 0.00035645118515115155 0.11865709840232683 144 238 144 0.5
0.304366009522954 0.0003574483358342873 0.11864864233011906 144 238 144 0.5
0.30435885395116835 0.00035840509786096814 0.11864013162206649 144 238 144 0.5
0.3043516116227184 0.0003593219900699001 0.1186315617032641 144 238 144 0.5
0.3043442756110074 0.0003601995312997898 0.11862292799880701 144 238 144 0.5
0.30433683898943853 0.000361038240389346 0.11861422593379022 144 238 144 0.5
0.3043292948314147 0.00036183863617727 0.11860545093330878 144 238 144 0.5
0.30432163621033914 0.0003626012375022709 0.11859659842245775 144 238 144 0.5
0.304313856199615 0.00036332656320305486 0.11858766382633222 144 238 144 0.5
0.3043059478726452 0.00036401513211832835 0.11857864257002718 144 238 144 0.5
0.3042979043028329 0.0003646674630867995 0.11856953007863764 144 238 144 0.5
0.3042897185635813 0.000365284074947171 0.11856032177725875 144 238 144 0.5
0.30428138372829333 0.000365865486538151 0.11855101309098551 144 238 144 0.5
0.3042728928703723 0.000366412216698446 0.11854159944491295 144 238 144 0.5
0.30426423906322114 0.0003669247842667624 0.11853207626413613 144 238 144 0.5
0.304255415380243 0.0003674037080818064 0.11852243897375009 144 238 144 0.5
0.30424641489484094 0.00036784950698228564 0.11851268299884989 144 238 144 0.5
0.30423723068041814 0.000368262699806904 0.1185028037645306 144 238 144 0.5
0.30422785581037765 0.00036864380539436913 0.1184927966958872 144 238 144 0.5
0.30421828335812257 0.00036899334258338735 0.11848265721801479 144 238 144 0.5
0.30420850639705604 0.00036931183021266515 0.11847238075600844 144 238 144 0.5
0.30419851800058106 0.0003695997871209095 0.1184619627349631 144 238 144 0.5
0.3041883112421008 0.0003698577321468252 0.11845139857997389 144 238 144 0.5
0.3041778791950183 0.00037008618412911944 0.11844068371613586 144 238 144 0.5
0.3041672149327368 0.0003702856619064987 0.11842981356854408 144 238 144 0.5
0.30415631152865924 0.0003704566843176693 0.11841878356229353 144 238 144 0.5
0.3041451620561888 0.0003705997702013379 0.11840758912247927 144 238 144 0.5
0.30413375958872857 0.0003707154383962101 0.11839622567419637 144 238 144 0.5
0.3041220971996816 0.00037080420774099267 0.1183846886425399 144 238 144 0.5
0.3041101679624511 0.00037086659707439196 0.11837297345260486 144 238 144 0.5
0.3040979649504401 0.0003709031252351145 0.11836107552948635 144 238 144 0.5
0.30408548123705165 0.0003709143110618664 0.11834899029827936 144 238 144 0.5
0.30407270989568885 0.0003709006733933541 0.11833671318407891 144 238 144 0.5
0.3040596439997548 0.00037086273106828405 0.11832423961198016 144 238 144 0.5
0.3040462766226528 0.0003708010029253626 0.1183115650070781 144 238 144 0.5
0.3040326008377857 0.0003707160078032961 0.11829868479446774 144 238 144 0.5
0.3040186097185567 0.0003706082645407908 0.11828559439924417 144 238 144 0.5
0.30400429633836884 0.0003704782919765528 0.1182722892465024 144 238 144 0.5
0.30398965377062537 0.0003703266089492892 0.11825876476133755 144 238 144 0.5
0.30397467508872916 0.00037015373429770594 0.11824501636884462 144 238 144 0.5
0.30395935336608343 0.0003699601868605094 0.11823103949411863 144 238 144 0.5
0.30394368167609137 0.0003697464854764061 0.11821682956225468 144 238 144 0.5
0.30392765309215586 0.00036951314898410145 0.11820238199834775 144 238 144 0.5
0.3039112606876802 0.00036926069622230333 0.11818769222749295 144 238 144 0.5
0.3038944975360675 0.0003689896460297175 0.11817275567478536 144 238 144 0.5
0.3038773567107207 0.0003687005172450502 0.11815756776531994 144 238 144 0.5
0.3038598312850429 0.0003683938287070078 0.11814212392419177 144 238 144 0.5
0.3038419143324373 0.0003680700992542957 0.11812641957649586 144 238 144 0.5
0.303823598926307 0.0003677298477256223 0.11811045014732736 144 238 144 0.5
0.303804878140055 0.0003673735929596928 0.11809421106178124 144 238 144 0.5
0.30378574504708455 0.0003670018537952137 0.11807769774495255 144 238 144 0.5
0.30376619272079863 0.00036661514907089136 0.11806090562193636 144 238 144 0.5
0.30374621423460035 0.00036621399762543213 0.1180438301178277 144 238 144 0.5
0.3037258026618928 0.00036579891829754117 0.11802646665772158 144 238 144 0.5
0.30370495107607914 0.00036537042992592717 0.11800881066671315 144 238 144 0.5
0.3036836525505625 0.0003649290513492954 0.11799085756989737 144 238 144 0.5
0.30366190015874583 0.0003644753014063522 0.11797260279236933 144 238 144 0.5
0.3036396869740323 0.000364009698935804 0.11795404175922405 144 238 144 0.5
0.303617006069825 0.0003635327627763556 0.11793516989555657 144 238 144 0.5
0.3035938505195271 0.00036304501176671623 0.117915982626462 144 238 144 0.5
0.3035702133965416 0.0003625469647455908 0.1178964753770353 144 238 144 0.5
0.3035460877742717 0.00036203914055168583 0.1178766435723716 144 238 144 0.5
0.3035214667261204 0.0003615220580237076 0.11785648263756589 144 238 144 0.5
0.30349634332549086 0.00036099623600036095 0.1178359879977132 144 238 144 0.5
0.3034707106457861 0.00036046219332035525 0.11781515507790864 144 238 144 0.5
0.30344456176040935 0.00035992044882239533 0.11779397930324725 144 238 144 0.5
0.3034178897427637 0.0003593715213451877 0.11777245609882407 144 238 144 0.5
0.30339068766625205 0.00035881592972743855 0.11775058088973411 144 238 144 0.5
0.3033629486042777 0.00035825419280785433 0.11772834910107247 144 238 144 0.5
0.3033346656302436 0.00035768682942513975 0.11770575615793408 144 238 144 0.5
0.30330583181755305 0.00035711435841800454 0.11768279748541416 144 238 144 0.5
0.303276440239609 0.0003565372986251532 0.11765946850860765 144 238 144 0.5
0.3032464839698145 0.00035595616888529224 0.11763576465260962 144 238 144 0.5
0.3032159560815728 0.00035537148803712807 0.11761168134251512 144 238 144 0.5
0.30318484964828685 0.0003547837749193653 0.11758721400341915 144 238 144 0.5
0.3031531577433598 0.00035419354837071357 0.11756235806041684 144 238 144 0.5
0.3031208734401949 0.0003536013272298778 0.11753710893860322 144 238 144 0.5
0.303087989812195 0.00035300763033556414 0.11751146206307331 144 238 144 0.5
0.30305449993276334 0.000352412976526479 0.11748541285892215 144 238 144 0.5
0.30302039687530297 0.00035181788464132713 0.11745895675124476 144 238 144 0.5
0.30298567371321705 0.0003512228735188183 0.11743208916513628 144 238 144 0.5
0.3029503235199087 0.00035062846199765695 0.11740480552569173 144 238 144 0.5
0.30291433936878087 0.00035003516891654964 0.11737710125800609 144 238 144 0.5
0.3028777143332368 0.0003494435131142028 0.11734897178717446 144 238 144 0.5
0.3028404414866796 0.00034885401342932265 0.11732041253829191 144 238 144 0.5
0.3028025139025121 0.00034826718870061387 0.11729141893645335 144 238 144 0.5
0.30276392465413776 0.0003476835577667862 0.11726198640675402 144 238 144 0.5
0.30272466791147407 0.0003471036072129672 0.11723211113828116 144 238 144 0.5
0.3026847498127687 0.00034652747158023483 0.11720179765900934 144 238 144 0.5
0.3026441838634303 0.0003459550687073222 0.11717105562995385 144 238 144 0.5
0.3026029836766718 0.0003453863132619214 0.11713989478724227 144 238 144 0.5
0.3025611628657069 0.0003448211199117294 0.11710832486700262 144 238 144 0.5
0.30251873504374865 0.00034425940332443854 0.11707635560536257 144 238 144 0.5
0.3024757138240104 0.00034370107816774265 0.11704399673844992 144 238 144 0.5
0.3024321128197053 0.0003431460591093356 0.1170112580023925 144 238 144 0.5
0.3023879456440467 0.00034259426081690957 0.11697814913331787 144 238 144 0.5
0.3023432259102481 0.00034204559795816174 0.11694467986735417 144 238 144 0.5
0.3022979672315225 0.0003414999852007842 0.11691085994062893 144 238 144 0.5
0.3022521832210834 0.000340957337212471 0.11687669908927005 144 238 144 0.5
0.30220588749214394 0.00034041756866091575 0.11684220704940528 144 238 144 0.5
0.30215909365791743 0.0003398805942138109 0.1168073935571623 144 238 144 0.5
0.30211181533161724 0.0003393463285388534 0.11677226834866905 144 238 144 0.5
0.30206406612645664 0.0003388146863037355 0.11673684116005331 144 238 144 0.5
0.30201585965564887 0.0003382855821761511 0.11670112172744279 144 238 144 0.5
0.30196720953240724 0.000337758930823794 0.1166651197869653 144 238 144 0.5
0.3019181293699451 0.000337234646914358 0.11662884507474859 144 238 144 0.5
0.3018686327814754 0.00033671264511553567 0.11659230732692041 144 238 144 0.5
0.30181873338021187 0.00033619284009502357 0.1165555162796087 144 238 144 0.5
0.30176844477936765 0.00033567514652051427 0.11651848166894117 144 238 144 0.5
0.30171778059215604 0.00033515947905970154 0.11648121323104554 144 238 144 0.5
0.30166675443179025 0.0003346457523802793 0.11644372070204968 144 238 144 0.5
0.30161537991148346 0.00033413388114993976 0.11640601381808124 144 238 144 0.5
