ply
format ascii 1.0
element vertex 1661
property float x
property float y
property float z
end_header
0.070917 -0.057556 0.423448
-0.110583 -0.087323 0.528126
0.092213 -0.031270 0.242701
0.090108 0.012633 0.242451
0.085772 0.012363 0.249907
0.219436 -0.035104 0.223867
0.211656 -0.031750 0.224005
0.219186 -0.033093 0.223190
0.220086 -0.034863 0.219366
0.217998 -0.012094 0.223540
0.180794 -0.044829 0.227852
0.193246 -0.049306 0.225866
0.088914 0.013316 0.255133
0.218744 0.006823 0.221786
0.218047 -0.059446 0.227324
0.219844 -0.057645 0.225258
0.090239 0.012690 0.243093
0.089469 0.012359 0.243601
0.077133 -0.038691 0.304819
0.056889 -0.060071 0.332742
-0.139172 -0.120596 0.529827
-0.135364 -0.086866 0.560584
0.022377 0.014096 0.204749
0.073239 -0.066627 0.336000
-0.054308 0.013956 0.262364
-0.043472 -0.014532 0.194780
-0.034052 0.008380 0.259681
0.061547 -0.081050 0.339254
0.089815 -0.055145 0.312234
0.077071 -0.047599 0.271421
-0.007204 0.015003 0.148158
-0.053723 0.013937 0.262498
0.073301 -0.005827 0.305938
0.077310 0.006125 0.294710
0.143133 -0.030534 0.262332
0.115845 -0.045718 0.273885
0.139874 -0.035467 0.266298
0.079036 -0.046559 0.327621
0.074781 -0.046457 0.324362
0.038085 -0.066869 0.329600
0.036996 -0.046968 0.340771
-0.012813 -0.153692 0.612477
0.016613 -0.037315 0.386734
0.097082 0.015130 0.326027
-0.001245 0.014436 0.151409
-0.068075 -0.006307 0.285859
0.033225 0.013399 0.198341
0.067209 -0.057555 0.323230
0.059916 -0.024207 0.309143
-0.033227 0.008573 0.261601
-0.033860 0.020737 0.233119
0.137854 -0.019969 0.233332
0.062123 -0.064985 0.346583
0.057857 -0.055679 0.362740
0.012811 0.014051 0.181426
0.077721 -0.049620 0.269675
-0.018520 0.014768 0.188853
0.218780 -0.032582 0.219879
0.229410 -0.063429 0.222944
0.219238 -0.036191 0.228006
-0.034009 -0.018452 0.272305
0.088776 0.012262 0.233878
0.116077 -0.032468 0.260441
0.124712 -0.034024 0.263334
0.089494 0.012301 0.249740
0.106789 -0.032823 0.261971
0.069990 -0.030335 0.309296
-0.035791 -0.019428 0.267503
0.049089 -0.066648 0.411009
-0.067572 -0.001956 0.285051
-0.067084 -0.000967 0.283756
0.217276 -0.048669 0.245192
-0.013685 0.015048 0.185961
0.065395 -0.068450 0.393098
0.045059 -0.063315 0.343729
0.067450 -0.022489 0.308254
0.034637 0.011335 0.268568
0.060877 -0.043940 0.307086
0.026453 0.013670 0.208896
0.009023 0.014221 0.220404
0.081490 -0.047777 0.283977
-0.011385 0.014308 0.255549
0.072560 -0.051612 0.351117
0.077079 -0.053370 0.351580
0.036636 0.012299 0.281560
-0.004946 0.014558 0.160949
0.068458 -0.072147 0.356509
0.064586 -0.053376 0.387803
0.054498 -0.057791 0.444735
0.036658 -0.074520 0.321436
0.067957 -0.042391 0.312031
0.054422 -0.066109 0.350535
0.074500 -0.020740 0.310059
0.081951 0.012361 0.253029
0.079733 0.010973 0.258166
0.089575 0.012376 0.248232
0.112232 -0.033556 0.262843
0.086448 0.011313 0.230261
-0.073087 -0.061643 0.288189
-0.078420 0.011482 0.286272
-0.014042 0.014893 0.186111
0.078197 -0.056002 0.334714
0.065428 -0.014278 0.326942
0.026532 0.013590 0.194725
-0.028944 0.015623 0.203706
0.045509 0.001228 0.307960
-0.139292 -0.082932 0.492789
0.019079 -0.090735 0.553904
0.028741 -0.065395 0.566174
0.079958 -0.112784 0.523963
-0.031255 0.007974 0.183167
0.119622 -0.033341 0.262528
0.165179 -0.050932 0.271585
0.064211 -0.014110 0.317110
0.186084 -0.054975 0.306862
0.106307 -0.032448 0.265656
0.005283 0.014511 0.196051
0.051404 -0.074586 0.335347
0.015052 0.014693 0.174500
0.030634 0.095657 1.257155
0.027558 -0.032226 0.296995
-0.020553 -0.153743 0.652641
0.073483 -0.028218 0.297715
0.107263 -0.036782 0.275930
0.083419 -0.034396 0.239607
0.088315 -0.139614 0.576951
0.018394 -0.000963 0.297397
-0.056253 0.030997 0.303615
0.005952 -0.050745 0.472378
0.228675 -0.016213 0.238229
0.098510 0.012551 0.250247
0.021995 0.014155 0.227296
-0.069485 -0.001765 0.289054
0.063622 0.002299 0.305075
0.064856 -0.028911 0.315553
0.161337 -0.025095 0.234561
0.178059 -0.045604 0.235813
0.064402 -0.052006 0.243540
0.013553 0.013595 0.233471
0.022769 0.034358 0.242778
-0.030830 -0.027137 0.250870
0.089918 0.012600 0.236587
0.088812 0.012136 0.235797
0.220686 -0.017900 0.247815
0.075348 0.012565 0.258863
0.076923 0.013370 0.260493
0.090185 0.012690 0.239342
0.084755 0.012860 0.254129
0.081519 0.013086 0.251341
0.097024 0.012639 0.250397
0.088138 0.012260 0.213708
0.032152 0.013891 0.240252
-0.058350 0.008989 0.282534
0.037443 -0.071448 0.323047
0.062264 -0.082220 0.342799
0.079361 -0.066147 0.326243
-0.116021 -0.081873 0.471242
0.077301 -0.044111 0.321839
0.041484 -0.061395 0.368998
0.048525 -0.069287 0.347258
0.011055 0.010706 0.158737
-0.008135 0.015231 0.160920
-0.027981 -0.151753 0.477095
0.078526 -0.050681 0.340690
-0.031070 0.013436 0.182874
0.040010 -0.018655 0.348680
0.001182 0.037382 0.243021
-0.104689 -0.051942 0.355555
0.074883 0.177353 0.580561
-0.109958 -0.048212 0.376448
0.014905 -0.077514 0.488239
-0.004867 -0.076828 0.475293
0.060840 -0.017907 0.341926
0.057633 -0.012873 0.312083
0.219025 -0.029489 0.227223
0.259998 -0.037228 0.232878
0.075656 -0.052944 0.334431
0.008315 0.023682 0.273747
-0.052908 -0.027166 0.306312
-0.045788 0.011015 0.260706
-0.032023 0.006226 0.184896
-0.068496 -0.006205 0.286764
0.021630 0.013818 0.203704
0.041194 -0.055266 0.360356
-0.136633 -0.098266 0.546534
0.014071 0.013891 0.200179
0.010796 0.014026 0.172742
-0.021058 0.015007 0.163827
0.081386 0.012783 0.250746
0.021596 0.013577 0.239770
0.075561 0.012492 0.258910
0.033513 0.013004 0.211848
0.077284 -0.037554 0.297714
-0.032320 0.005793 0.185247
-0.489163 0.101084 1.140321
-0.060053 0.015649 0.273264
-0.021350 0.015176 0.164425
-0.013595 0.014544 0.184726
0.062465 -0.046496 0.324430
0.059631 -0.068606 0.341722
0.028671 -0.064550 0.298459
0.002549 0.104815 0.496616
-0.031916 0.006038 0.184516
-0.015269 0.014803 0.186152
0.019726 0.013807 0.172641
-0.028043 -0.001596 0.176170
0.001067 0.014251 0.199992
0.074718 -0.028376 0.304861
-0.031946 -0.016852 0.265204
0.061794 -0.006258 0.303148
0.024239 0.027505 0.234916
-0.013613 0.007410 0.199496
0.034137 0.013383 0.217120
0.119222 -0.049478 0.275207
0.150920 -0.058144 0.287572
0.076810 -0.070343 0.385927
0.074493 -0.058056 0.425558
0.074132 -0.064681 0.422830
0.118114 0.007115 0.261034
0.241361 -0.052958 0.281685
0.161917 -0.054297 0.270719
0.004779 0.014767 0.202801
-0.036152 0.015263 0.311642
0.062329 -0.052856 0.380771
-0.135034 -0.083108 0.427956
0.061616 0.002420 0.300419
0.049194 -0.061490 0.362704
-0.024143 0.014238 0.216836
0.007855 0.013945 0.225295
0.069132 -0.057505 0.346385
0.249092 -0.042516 0.230692
0.253917 -0.054393 0.216733
0.257040 -0.053189 0.217680
0.222453 -0.040555 0.237161
0.254225 -0.056211 0.211724
0.218087 -0.034877 0.223872
0.003336 0.013434 0.218833
0.028787 0.013642 0.217186
-0.010180 0.014343 0.205176
-0.019636 0.014359 0.206069
-0.128111 -0.070437 0.414717
0.074107 -0.036612 0.319664
0.014819 0.014163 0.233995
0.097130 -0.117680 0.572429
0.049539 -0.071375 0.349301
0.067328 -0.054236 0.356628
0.321471 -0.036969 0.255811
-0.053471 0.014254 0.265884
0.230353 -0.057126 0.226870
-0.043384 -0.029415 0.288562
0.046912 0.002579 0.302626
-0.108100 0.059168 0.385953
0.032126 -0.000799 0.299201
0.033665 0.001752 0.300408
0.089971 0.012303 0.253070
0.103889 -0.032317 0.263373
0.092509 0.012822 0.250844
0.219209 -0.034528 0.249249
-0.022532 0.013226 0.305976
0.038674 -0.109104 0.610609
-0.145891 -0.121886 0.541130
0.013309 -0.079388 0.498384
-0.034468 -0.042889 0.262728
0.063741 -0.028298 0.313132
0.034514 0.014068 0.200893
0.034214 0.013928 0.200281
0.027301 0.013601 0.194223
-0.010369 0.014504 0.205874
-0.003018 0.013156 0.227732
-0.039214 0.021309 0.228580
0.015512 -0.035128 0.365754
0.022760 -0.089688 0.526544
0.219881 -0.052984 0.245773
0.049738 0.001724 0.316150
-0.022070 0.002850 0.341337
0.057286 0.002304 0.305247
-0.013832 0.014884 0.185618
-0.018477 0.014788 0.188872
0.006030 0.014340 0.182152
-0.018857 0.014991 0.189483
0.081818 -0.058394 0.323092
0.123646 -0.050511 0.281924
0.129206 -0.039222 0.273356
0.129594 -0.033935 0.262892
0.137554 -0.034334 0.264215
0.169038 -0.071501 0.288411
0.142456 -0.035528 0.264350
-0.027577 0.014917 0.222154
0.052509 -0.064270 0.344854
0.034465 0.013243 0.235082
0.076639 -0.012427 0.309479
0.126602 -0.056589 0.264419
0.164855 -0.069305 0.281244
0.055631 0.010938 0.289612
0.118749 0.007611 0.263009
0.069228 -0.022420 0.282491
0.220568 -0.062622 0.252158
0.220978 -0.062437 0.252305
0.006848 0.013976 0.200555
0.085474 0.130177 0.568137
0.037552 -0.019944 0.337401
0.050538 -0.017689 0.331512
0.068252 -0.068097 0.359028
-0.028015 0.015222 0.225582
0.077078 -0.015479 0.314583
0.071534 -0.043246 0.325867
0.079986 -0.046851 0.282986
-0.025647 0.014236 0.255956
0.164528 -0.026318 0.255790
0.077580 -0.040620 0.305011
0.050000 0.013469 0.216412
0.081819 0.012279 0.253299
0.178797 -0.043382 0.257632
0.063539 -0.013787 0.320644
0.086307 0.011450 0.236234
0.090470 0.012803 0.227806
0.216672 -0.036940 0.258705
0.077097 -0.028372 0.303949
0.057835 -0.003243 0.302607
0.129327 -0.034591 0.263564
0.166128 -0.034412 0.262923
0.069721 -0.028257 0.294780
0.221142 -0.055200 0.246205
0.083063 0.012316 0.253005
0.090084 0.012663 0.239872
-0.006099 0.014504 0.185321
-0.015159 0.015209 0.198973
-0.026143 0.013977 0.188619
0.123676 -0.032776 0.262019
0.136530 -0.037516 0.267356
0.094217 0.012619 0.253688
0.224190 -0.050374 0.246027
0.135323 -0.034301 0.262542
0.079576 -0.074435 0.319314
-0.072776 0.005162 0.286800
-0.014596 0.014705 0.197270
0.078092 -0.052303 0.334820
0.062957 -0.000603 0.303891
-0.144421 -0.102837 0.530250
0.015900 0.016782 0.257023
-0.138440 -0.091461 0.564512
0.015212 0.010176 0.300022
0.064897 -0.057500 0.348536
0.006152 0.014204 0.172240
0.003073 0.014587 0.163798
-0.007353 0.014440 0.197838
-0.067822 0.000971 0.275302
0.001268 0.014419 0.172478
0.084944 0.010887 0.232760
0.172337 0.012780 0.254391
0.077020 0.012266 0.266058
0.149445 -0.047878 0.289945
0.004458 -0.005015 0.139542
0.019713 0.013752 0.215202
0.253036 -0.056471 0.214758
-0.151874 -0.074780 0.520366
0.023622 -0.020182 0.338586
0.076371 0.009391 0.252527
0.083224 0.012290 0.249760
0.090368 0.012689 0.245509
0.089763 0.012535 0.234518
0.085668 0.012308 0.253057
0.089222 0.012798 0.254272
0.124097 -0.035494 0.265497
0.117355 -0.032785 0.261187
0.006405 0.014247 0.157665
-0.030133 -0.009214 0.180657
0.122216 0.013390 0.251521
0.213734 0.006211 0.250556
0.117889 -0.030336 0.262388
0.073321 -0.040569 0.332776
0.076841 -0.036306 0.320019
0.066794 -0.035254 0.328605
0.013029 0.011829 0.207148
0.078928 -0.059952 0.355847
-0.016913 0.014895 0.216301
-0.055044 -0.016619 0.276729
-0.007089 0.014104 0.196875
0.066610 -0.045955 0.329615
0.021565 0.007734 0.293885
0.004243 -0.038788 0.392161
-0.005897 0.014282 0.184831
0.076776 0.001978 0.311434
0.034084 0.013405 0.221899
0.078624 -0.047425 0.278720
0.117531 0.007245 0.260849
0.226097 -0.037499 0.229513
0.214574 -0.056184 0.225862
0.234818 -0.059904 0.233248
0.243080 -0.052707 0.217423
0.218528 -0.036103 0.222945
0.267197 -0.042128 0.236975
0.222612 -0.037045 0.228280
0.247836 -0.056044 0.211659
0.248314 -0.053055 0.213116
0.090438 0.012706 0.245814
0.078472 -0.033041 0.316286
0.073632 -0.033844 0.319205
0.030404 0.013630 0.234209
0.038400 -0.008176 0.313937
0.065227 -0.066445 0.349986
0.019912 0.013708 0.214733
-0.012715 -0.004024 0.321524
0.010447 0.008753 0.197314
0.037731 0.012307 0.293960
-0.020928 0.003412 0.332451
0.051617 -0.062830 0.341242
-0.019717 -0.026057 0.366176
0.063322 -0.000497 0.306042
0.033890 0.013297 0.208535
0.014275 0.013679 0.218817
0.219977 -0.053288 0.245878
0.010987 0.014252 0.173317
0.079674 -0.054787 0.339030
-0.066753 -0.005540 0.262578
0.075856 0.012123 0.253561
-0.057745 0.009464 0.266494
-0.065691 -0.025785 0.261201
0.002530 0.013704 0.192219
-0.027080 0.014651 0.189881
0.161876 -0.034822 0.262906
0.121178 -0.041323 0.271987
0.078059 -0.007223 0.323399
0.161877 0.012304 0.253253
0.164294 0.010070 0.265921
0.075897 -0.041388 0.309236
0.078651 -0.047846 0.328567
0.002137 0.014279 0.200056
0.066055 -0.021969 0.305151
-0.003823 0.014098 0.180427
0.018476 0.012336 0.195976
0.132208 -0.055247 0.285975
0.062517 -0.027658 0.343905
0.069137 -0.035049 0.313782
0.078029 -0.045563 0.309382
0.082478 -0.052252 0.278826
-0.060969 0.005053 0.260511
-0.026418 0.014251 0.211449
0.075070 -0.024866 0.309048
0.072875 -0.034309 0.316164
-0.017599 0.015114 0.186574
-0.002835 0.014581 0.181711
0.017700 0.011891 0.191648
0.018550 0.011868 0.262369
0.063516 -0.043247 0.335821
-0.030083 0.012245 0.262309
0.091806 -0.081604 0.442278
0.071720 -0.050568 0.370473
0.045248 -0.061116 0.361656
0.008121 0.015060 0.213752
0.072701 -0.060959 0.334558
0.078081 -0.056292 0.323505
0.252188 -0.056341 0.214542
0.129325 0.014014 0.252107
0.248406 -0.050771 0.210311
0.220477 -0.040221 0.238103
0.221852 -0.040593 0.237919
0.048328 0.013641 0.216828
0.248064 -0.052695 0.213614
0.215730 -0.032376 0.231025
0.179208 -0.043080 0.257448
0.185624 -0.045187 0.260388
0.160638 -0.031700 0.262254
0.163765 -0.023710 0.255013
0.161665 -0.064773 0.279264
0.159193 0.007623 0.261462
0.168938 0.012031 0.253349
0.206985 -0.047741 0.270007
0.162657 -0.034549 0.262795
0.120569 -0.033284 0.261301
0.141383 -0.059681 0.283934
0.103629 -0.033862 0.263309
0.162511 -0.039058 0.272967
0.121232 -0.027820 0.247507
0.071658 -0.045474 0.305185
0.116046 -0.034703 0.263138
0.088758 0.010799 0.246764
0.030837 0.014014 0.224381
0.162982 -0.050713 0.276770
0.149190 -0.064934 0.280887
0.069183 -0.039458 0.303581
0.250229 -0.046898 0.240064
0.156522 -0.042069 0.273159
0.121303 -0.036566 0.267218
0.060789 -0.044878 0.303985
0.046172 0.015413 0.321803
0.144974 -0.060180 0.282153
0.077158 -0.049122 0.332139
0.112043 -0.035137 0.264942
0.063974 0.013277 0.305063
0.170089 -0.071570 0.285134
0.145800 -0.061695 0.290504
0.219758 -0.011124 0.251590
0.111717 -0.038356 0.269153
0.036510 0.013908 0.263370
0.035780 0.014015 0.229243
0.161994 -0.064650 0.279500
0.159978 -0.068516 0.301010
0.072241 -0.039710 0.307113
0.078839 -0.056350 0.384855
0.072411 -0.033733 0.314484
0.152972 -0.041479 0.272253
0.087137 0.013196 0.254804
0.220232 -0.049393 0.245842
0.065524 -0.054569 0.357635
0.078127 -0.061241 0.323150
0.074244 -0.054961 0.341740
0.111705 -0.032871 0.261689
0.010026 -0.033490 0.351699
0.076557 -0.010421 0.308699
0.073656 -0.036365 0.319801
0.082637 -0.057594 0.365020
0.033141 0.013988 0.243567
0.030041 0.013517 0.222920
0.034406 0.013849 0.224176
0.078543 -0.044743 0.308022
0.077758 -0.046384 0.328966
0.145009 -0.036311 0.268684
0.152595 -0.035954 0.268660
0.063316 0.012137 0.214080
0.041830 0.013989 0.217392
0.067584 -0.053413 0.324243
0.154844 -0.041896 0.272918
0.065913 -0.070408 0.360986
0.080598 -0.052127 0.334557
0.074147 0.009519 0.262937
0.076697 -0.050459 0.362238
0.082208 -0.033498 0.312103
0.124479 -0.031757 0.262124
0.159232 -0.048589 0.263069
0.078358 -0.027303 0.305672
0.079378 0.010708 0.259024
0.079271 0.011951 0.252384
0.069128 -0.029562 0.306441
0.111019 0.012693 0.250350
0.215785 0.005965 0.219629
0.220550 -0.015509 0.238368
0.217938 -0.032676 0.219503
0.220115 -0.035387 0.218793
0.246452 -0.054847 0.214687
0.126573 0.012522 0.249942
0.105511 -0.034692 0.264778
0.121181 -0.033631 0.262294
0.164411 0.007852 0.263124
0.104890 -0.031965 0.264062
0.073237 -0.036003 0.317480
0.074319 -0.041582 0.306742
0.076467 -0.034740 0.319725
0.069928 -0.037683 0.316248
0.064066 -0.033633 0.315069
0.070460 -0.034787 0.306539
0.059071 -0.005274 0.305692
0.105554 -0.040271 0.265185
0.071996 -0.008462 0.305760
0.026878 0.013972 0.209680
0.067067 -0.054692 0.356253
0.222000 -0.049551 0.246122
0.035696 0.013993 0.230891
0.038092 0.015795 0.245607
0.041753 -0.008736 0.329890
0.038893 -0.022489 0.340605
0.092363 0.011966 0.252709
0.071827 -0.026433 0.307007
0.097867 0.007102 0.258377
0.071068 0.012284 0.298312
0.150888 -0.058500 0.287756
0.057843 -0.004825 0.301333
0.242827 -0.045134 0.217318
0.060816 -0.008579 0.306509
0.036093 0.014319 0.229662
0.035871 0.013745 0.248958
0.148609 -0.033384 0.261155
0.079992 -0.040678 0.311535
0.070950 -0.035079 0.315508
0.078933 -0.043920 0.320718
0.073331 -0.038793 0.306484
0.078313 -0.045712 0.326815
0.303976 -0.027968 0.234045
0.089651 0.012047 0.252704
0.162996 0.012475 0.253685
0.067328 -0.021414 0.310734
0.066388 -0.025805 0.309677
0.089779 0.012597 0.229844
0.076606 -0.025571 0.312208
0.065895 -0.019306 0.309643
-0.148979 -0.072594 0.514012
0.081273 -0.050372 0.348167
0.139855 0.007181 0.262080
0.086288 0.011411 0.230227
0.283231 -0.022632 0.240855
0.031169 -0.034694 0.363465
0.078034 -0.032927 0.307224
0.063759 -0.029503 0.312336
0.128509 -0.036736 0.266527
0.141133 -0.047569 0.286644
0.250624 -0.054696 0.204689
0.015398 0.013671 0.209466
0.073619 -0.034275 0.317713
-0.001116 0.013972 0.202723
0.077211 -0.042350 0.303355
0.071013 -0.046440 0.374014
0.026309 0.013679 0.212939
0.072454 -0.042118 0.261491
0.316644 -0.046220 0.251607
0.078228 0.011729 0.248653
0.080921 0.013665 0.255819
0.090275 0.012716 0.244936
0.216355 -0.034034 0.248438
-0.042793 0.011584 0.268490
0.013709 0.013456 0.232901
-0.031194 0.017126 0.259749
-0.007176 0.014293 0.197384
0.077332 -0.050142 0.339579
0.026853 0.013623 0.195301
0.047855 -0.060006 0.357632
-0.171926 -0.128529 0.578341
0.087914 0.013268 0.254902
0.016580 0.014939 0.203798
0.078332 -0.052915 0.347300
-0.280374 -0.139712 0.830318
-0.054290 -0.018257 0.276081
0.008183 0.015302 0.205301
-0.051141 -0.025425 0.268689
0.076881 -0.044097 0.333657
0.071490 -0.052685 0.379439
0.077198 -0.047941 0.334180
0.079041 0.012147 0.252664
0.024902 -0.010383 0.304817
-0.028156 0.012704 0.293125
-0.007373 0.014181 0.217415
0.021581 0.013647 0.203472
0.012183 0.014383 0.187570
0.040822 0.152274 0.580706
0.002215 0.013496 0.190433
0.037838 -0.071483 0.327071
0.001882 0.014836 0.186523
-0.035242 0.019076 0.216682
-0.006164 0.014828 0.186075
-0.004334 0.014329 0.184614
0.080049 -0.043362 0.310206
-0.068509 -0.068001 0.370003
-0.048454 0.008053 0.264054
0.025581 0.013201 0.193132
0.010136 0.014649 0.183045
0.006995 0.014457 0.182355
-0.023702 0.017018 0.216409
-0.007087 0.014011 0.196438
0.045446 0.003569 0.293937
-0.029173 0.014816 0.268823
-0.207341 -0.102307 0.586448
0.190341 -0.042068 0.262252
0.169609 0.011769 0.265503
0.076441 -0.032706 0.306338
0.091635 0.012984 0.241401
0.069497 0.001153 0.299919
0.110767 -0.030046 0.261964
0.080079 -0.038597 0.305569
0.084790 0.011098 0.236858
0.072822 -0.033514 0.317631
0.071021 -0.033296 0.320888
0.099359 -0.030623 0.256959
0.072522 -0.035362 0.315282
0.005622 0.014058 0.204816
0.063522 -0.035700 0.315107
-0.008072 -0.068643 0.461858
0.004076 -0.039883 0.400677
0.078065 -0.032973 0.315476
0.220166 -0.014236 0.227990
-0.019589 0.014455 0.206182
0.151328 0.198480 0.919845
0.016561 0.013975 0.210307
0.005350 0.016239 0.210754
-0.007686 0.014962 0.199593
0.002428 0.014845 0.202352
0.012605 0.014079 0.186954
-0.053791 -0.018506 0.275480
-0.052556 -0.018291 0.272987
0.063060 -0.014002 0.314130
-0.035573 -0.043618 0.275454
0.065840 -0.019138 0.313451
0.251660 -0.054314 0.207427
0.220487 -0.038910 0.236242
0.228040 -0.036597 0.211780
0.216710 -0.048050 0.229020
0.222484 -0.035905 0.214623
0.081614 -0.057488 0.366434
0.053915 -0.028518 0.262575
0.005568 0.014776 0.207229
0.126327 -0.036087 0.266558
0.166635 -0.050484 0.293584
0.176072 -0.061240 0.300005
0.147247 -0.036885 0.270356
0.127032 -0.036266 0.267721
0.057029 0.012080 0.214063
0.064621 0.012500 0.214510
0.014685 0.014649 0.202458
-0.017872 -0.113819 0.554137
-0.025228 0.014017 0.248444
0.044689 -0.015754 0.310774
0.066868 -0.019576 0.316701
0.093910 0.006054 0.255017
0.064622 -0.065544 0.382968
0.079457 -0.059902 0.405070
0.075850 -0.045170 0.348400
0.162585 0.009435 0.265018
-0.033999 0.018450 0.229707
0.076628 -0.040695 0.347952
-0.041270 -0.032301 0.282196
-0.061045 -0.040348 0.333690
-0.022878 0.014097 0.211641
0.079537 -0.042705 0.310809
0.025433 -0.062966 0.407237
-0.118103 -0.091559 0.438478
0.029726 0.013742 0.213090
-0.002005 0.013672 0.203607
0.002145 0.014907 0.201199
-0.022735 0.012566 0.234843
0.002201 0.013900 0.190971
-0.066015 0.008645 0.298213
0.220505 -0.036277 0.252228
0.071656 -0.010287 0.305526
0.062182 -0.027197 0.304793
0.217926 0.011403 0.254158
0.065347 -0.042507 0.315407
0.028053 -0.028570 0.288129
0.034928 0.013594 0.224082
0.129720 -0.041648 0.275920
0.035344 0.013440 0.243780
0.248126 -0.066893 0.216378
0.225201 -0.036799 0.214097
0.222267 -0.058233 0.217111
0.219903 -0.034680 0.219669
0.127416 -0.035609 0.264778
0.073313 -0.024251 0.309436
0.128881 -0.041892 0.276529
0.066401 -0.017357 0.314003
0.066981 0.013419 0.305348
0.077521 -0.040478 0.305160
0.070659 -0.007314 0.305032
0.068095 -0.036228 0.332413
0.079751 -0.028042 0.310499
0.221578 -0.057377 0.252439
0.220025 -0.057554 0.245070
0.239495 -0.049844 0.239931
0.217327 -0.034778 0.215669
0.075188 -0.053474 0.380607
0.073934 0.009210 0.262086
0.033948 0.014714 0.246087
0.121636 -0.041215 0.272284
0.076274 0.011900 0.266690
0.077403 0.011957 0.254037
0.078698 -0.041689 0.309339
0.124393 -0.034504 0.263271
0.075366 -0.040327 0.311185
0.088575 -0.034280 0.321367
0.089095 0.012249 0.241341
0.163114 0.012328 0.262055
0.066365 -0.028723 0.313184
0.164322 -0.057245 0.273004
0.127474 -0.041347 0.283839
0.215194 0.011308 0.259873
0.160080 0.011640 0.263481
0.141374 -0.033722 0.262080
0.068370 -0.044370 0.301445
0.056139 0.012459 0.299766
0.087167 0.011962 0.252454
0.077071 -0.051405 0.345903
0.074281 -0.042194 0.311407
0.076882 -0.041658 0.305040
0.127868 -0.041147 0.278282
0.143599 -0.035882 0.265305
0.222582 -0.049306 0.227276
0.217649 -0.014434 0.220098
0.217522 -0.011697 0.223105
0.219471 -0.025470 0.228307
0.141760 -0.030987 0.262736
0.243996 -0.052286 0.208240
0.239241 -0.033509 0.242736
0.069447 -0.019247 0.304584
0.076116 -0.050917 0.347006
0.084122 0.173134 0.636666
0.085118 0.105353 0.529783
-0.019599 -0.035020 0.369909
0.232058 -0.042571 0.238368
0.218453 -0.030141 0.227591
0.161362 -0.042244 0.261818
0.229638 -0.036534 0.212916
0.074614 -0.038993 0.341807
0.074819 -0.035529 0.329363
0.087459 0.011801 0.231329
0.074442 -0.030333 0.315007
0.009244 0.005027 0.200798
0.071479 -0.031031 0.303922
0.072493 -0.032526 0.317200
0.055877 0.007152 0.266831
0.069603 0.014584 0.314267
-0.007429 0.014078 0.217037
0.014879 0.013921 0.210017
0.026888 -0.034650 0.368163
-0.015290 -0.099201 0.530494
0.017920 -0.089289 0.548645
0.071538 -0.005442 0.304465
-0.058285 -0.046343 0.326553
0.035568 0.013816 0.233208
0.003732 -0.036818 0.381268
0.033457 -0.097081 0.546262
0.081257 -0.057058 0.349172
-0.037504 -0.040895 0.280130
0.214535 -0.122060 0.716222
0.079810 -0.053967 0.328713
0.121528 -0.050068 0.279456
0.172072 -0.060339 0.277891
0.046507 0.012523 0.300678
0.029058 0.013556 0.223171
0.067699 -0.037326 0.322338
0.061496 0.002484 0.300302
0.067645 -0.019246 0.309802
0.155411 -0.206425 0.868617
0.035817 0.014032 0.231718
0.083378 -0.046867 0.317953
0.221081 0.011659 0.222820
0.158996 0.011092 0.261383
0.240566 -0.049413 0.217497
0.219275 0.011106 0.223349
0.034874 0.013634 0.218521
0.103865 -0.032533 0.261554
0.161053 -0.061731 0.274492
0.099322 0.011276 0.247960
0.098495 0.014304 0.253475
0.224974 -0.045752 0.237222
0.076808 -0.033520 0.314169
0.074154 -0.030701 0.312499
0.072894 -0.026910 0.312867
0.084129 0.011368 0.275043
0.075982 0.011362 0.292475
0.103609 -0.072911 0.380945
0.197008 -0.046230 0.242147
0.214143 -0.037512 0.238344
0.220501 -0.063931 0.238048
0.224767 -0.063664 0.239508
0.079105 0.012125 0.252653
0.035394 0.013926 0.243233
0.047829 0.010506 0.287595
0.067227 -0.048880 0.319793
0.016047 0.015427 0.234229
0.005687 0.013920 0.285147
0.076248 -0.006147 0.308662
0.014638 0.014252 0.220575
0.004394 0.014143 0.251200
0.090861 0.012988 0.236641
0.090718 0.012837 0.238762
0.076795 0.013512 0.252408
0.122813 -0.035277 0.264256
0.093085 0.012179 0.252891
0.089299 0.012538 0.253557
0.098724 0.007336 0.258965
0.099474 0.007482 0.259723
0.013882 0.013646 0.233775
0.067083 -0.061779 0.363732
0.076366 -0.010122 0.308117
0.077460 -0.027095 0.313078
0.062630 -0.027751 0.309875
0.062455 -0.009282 0.313558
0.076904 0.012198 0.253264
0.216390 -0.055697 0.251382
0.084926 0.012104 0.252964
0.096534 0.009997 0.257157
0.038334 -0.023957 0.335750
-0.051265 0.028367 0.304281
0.079335 -0.040830 0.296397
0.074271 -0.036251 0.320678
0.221891 -0.038875 0.252612
0.112923 -0.033432 0.260934
0.076887 -0.034588 0.312922
0.069198 -0.001949 0.311575
0.081046 0.012686 0.253983
0.165279 -0.024100 0.255348
0.250605 -0.055729 0.205031
0.217864 0.006592 0.219330
0.207603 -0.033834 0.226540
0.101212 0.011872 0.249176
0.076737 -0.041341 0.348679
0.118994 -0.049645 0.277682
0.075265 -0.037009 0.322878
0.102560 -0.031203 0.262663
0.048974 0.007373 0.293312
0.057518 -0.000261 0.304415
0.054086 -0.062517 0.385390
0.048258 -0.009854 0.311086
0.094952 0.009616 0.255708
0.077937 -0.055846 0.328114
0.047054 -0.058283 0.370075
0.029943 0.013858 0.213287
0.077234 0.009320 0.294272
0.122030 -0.175403 0.757765
0.083848 -0.096809 0.464670
0.156537 -0.060491 0.272505
0.034925 0.013692 0.216901
0.104090 0.012320 0.249795
0.249009 -0.055888 0.205668
0.089072 0.012347 0.253158
0.122824 -0.033911 0.262231
0.034279 0.014274 0.236649
0.162358 -0.031958 0.262929
0.074488 -0.055724 0.389412
0.063787 -0.014791 0.313511
-0.011948 0.013387 0.249534
0.096644 0.015338 0.229017
0.102012 0.017331 0.238779
0.090467 0.012841 0.238445
0.090352 0.012715 0.243876
0.059711 -0.000266 0.297746
0.073019 -0.055607 0.364997
0.021681 0.013625 0.239965
0.088466 -0.053784 0.293037
-0.003445 0.010999 0.284564
-0.004458 -0.046005 0.441149
0.024502 0.013851 0.198595
0.118152 -0.030531 0.263557
0.077799 0.010631 0.257128
-0.023168 0.014302 0.212441
-0.016665 -0.115825 0.741641
-0.034794 0.001181 0.261669
0.069819 -0.020785 0.315462
0.078192 -0.028855 0.299880
0.349126 -0.033937 0.250148
0.222342 -0.025366 0.223823
0.218462 -0.032634 0.219698
0.218040 -0.028570 0.223553
0.221623 -0.039729 0.223188
0.138720 -0.189601 0.834724
0.061631 0.011919 0.213804
0.144924 -0.061003 0.286918
0.101216 -0.032665 0.261346
0.218036 -0.039550 0.237876
0.096655 0.012998 0.250938
0.092828 0.011446 0.248244
0.091181 0.012152 0.249486
0.089713 0.012413 0.248140
0.120189 0.012918 0.250740
0.220193 -0.053258 0.245926
0.060318 -0.047077 0.305521
0.043991 0.009152 0.277320
0.045967 0.013932 0.310169
0.048474 0.012421 0.299572
0.036034 0.014002 0.244367
0.143169 -0.059763 0.281124
0.163202 -0.062854 0.276170
0.035563 0.013889 0.228496
0.120421 -0.033680 0.262282
0.218481 -0.035314 0.259778
0.164305 -0.025793 0.255431
0.119081 -0.036374 0.260564
0.064078 -0.039144 0.298314
0.216706 0.011450 0.260168
0.035911 0.013951 0.242680
0.035346 0.013636 0.236808
0.049211 -0.004987 0.317952
0.035595 0.014162 0.223298
0.078697 -0.043550 0.312779
0.154154 -0.063848 0.278181
0.092898 0.012090 0.253112
0.164068 -0.032172 0.263418
0.221210 -0.033489 0.252415
0.131121 -0.062904 0.469240
0.222234 -0.012066 0.252746
0.004013 -0.008184 0.101459
0.072339 -0.032154 0.316240
0.079291 -0.047283 0.314039
0.019212 0.014310 0.230136
0.157278 0.011171 0.251974
0.070585 0.012344 0.249860
0.071591 -0.008391 0.304689
0.063977 -0.015215 0.319981
0.075161 -0.042342 0.329874
0.083023 -0.049820 0.324112
0.034680 0.013608 0.216642
0.069416 0.011446 0.293795
0.034449 0.013484 0.221720
0.026678 0.013698 0.213248
0.076280 -0.044367 0.276775
0.074090 -0.045112 0.266211
0.077735 -0.046443 0.328847
0.035569 0.013761 0.236003
0.079023 -0.046275 0.280564
0.035745 0.013769 0.244307
0.073861 0.012263 0.213985
0.061720 0.012400 0.214361
0.124555 -0.052624 0.282147
0.075989 -0.031643 0.306647
0.061981 0.010062 0.284778
0.076421 0.012251 0.253415
0.075849 -0.042436 0.312214
0.076169 -0.051318 0.328881
0.075331 -0.054844 0.340612
0.222164 0.009253 0.253831
0.161810 -0.032366 0.263154
0.217955 0.011370 0.260782
0.219455 -0.063446 0.236810
0.150960 -0.033886 0.262212
0.072338 -0.033136 0.308632
0.151592 -0.051167 0.295048
0.074769 0.012027 0.273904
0.249717 -0.051771 0.210446
0.245309 -0.052501 0.206035
0.216736 -0.056096 0.222805
0.244316 -0.066929 0.210151
0.218561 -0.038161 0.222992
0.110461 0.014300 0.252980
0.249258 -0.051081 0.210455
0.217350 0.006718 0.220818
0.249728 -0.051430 0.213641
0.227574 -0.036503 0.211873
0.075827 -0.055415 0.336120
0.075350 -0.053701 0.382456
0.145169 -0.036224 0.266296
0.126476 -0.035613 0.266387
0.075759 -0.027184 0.311573
0.114845 -0.034258 0.262042
0.075173 -0.031455 0.315251
0.063200 -0.022282 0.276544
0.053741 -0.016083 0.252622
0.061639 -0.038317 0.301844
0.159665 0.011938 0.263890
0.069686 -0.026544 0.289001
0.039844 -0.057628 0.414301
0.021958 0.007850 0.295470
0.060475 -0.020712 0.332020
0.006640 0.013860 0.209915
0.070623 -0.007479 0.309894
0.076594 -0.028730 0.309982
0.019753 0.013826 0.215302
0.235141 -0.016824 0.239106
-0.003186 0.015185 0.224299
-0.003631 0.014736 0.233065
0.038185 0.014882 0.253734
0.009112 0.006584 0.186924
0.128846 -0.057404 0.286262
0.165118 -0.061408 0.275135
0.145851 -0.063443 0.278422
0.082443 -0.048660 0.363238
0.043630 0.010434 0.287159
-0.045666 0.012698 0.281637
0.034229 0.011059 0.285898
0.057913 -0.000280 0.305485
-0.007860 0.014666 0.219032
-0.058562 0.077998 0.405131
-0.020257 0.026242 0.237822
0.004376 0.013645 0.249206
0.035159 0.013507 0.236355
0.072777 -0.045713 0.346848
0.033749 0.013273 0.221538
0.035172 0.014057 0.214386
0.029015 0.013780 0.217260
-0.022060 0.004562 0.349292
0.015260 0.013850 0.228904
0.075406 -0.052137 0.347401
0.053613 -0.070579 0.347958
0.021751 0.007744 0.295286
0.033358 0.002673 0.304572
0.078182 -0.040111 0.302939
0.071688 -0.036664 0.321516
0.071980 0.013480 0.305852
0.220661 -0.012735 0.229031
0.217646 -0.012838 0.224888
0.222721 -0.035711 0.217466
0.247526 -0.050499 0.206838
0.191014 -0.030546 0.235357
0.218997 -0.033845 0.227955
0.238832 -0.043969 0.217366
0.220657 -0.012387 0.252318
0.244087 -0.053853 0.214199
0.217674 -0.033884 0.226472
0.222874 -0.018161 0.227314
0.221279 -0.033210 0.223430
0.239429 -0.026963 0.227276
0.211592 -0.018786 0.228364
0.271706 -0.026568 0.225801
0.236171 -0.022927 0.223819
0.272125 -0.047538 0.236004
0.283589 -0.045077 0.235392
0.161375 -0.033144 0.261551
0.164882 -0.049416 0.267587
0.072994 -0.049309 0.334206
0.074640 -0.048297 0.320297
0.077794 -0.044708 0.324683
0.073811 -0.029370 0.306321
0.116248 -0.034719 0.263185
0.073175 -0.036919 0.319707
0.107913 -0.033859 0.262100
0.076491 0.002425 0.310352
0.073509 -0.044122 0.318185
0.062033 -0.023552 0.309533
0.075148 0.012277 0.258413
0.071114 0.012009 0.213743
0.071220 -0.047665 0.313230
0.073986 0.013200 0.215189
0.060654 -0.044611 0.303693
0.056131 -0.001538 0.310887
0.236547 -0.046256 0.263822
0.072483 0.012271 0.214038
0.061365 -0.042085 0.313468
0.076401 -0.039145 0.305867
0.095400 0.009763 0.256216
0.075536 -0.062035 0.381583
0.051830 -0.015013 0.329681
0.218622 -0.039645 0.259280
0.071449 -0.042480 0.306106
0.173462 -0.040016 0.255429
0.154719 -0.036115 0.268395
0.180338 -0.067221 0.283482
0.102879 -0.033421 0.262740
0.069798 -0.045943 0.302803
0.066931 0.012910 0.302290
0.075637 -0.023988 0.308054
0.224064 -0.026168 0.228406
0.222379 -0.039809 0.235918
0.215572 -0.029541 0.227598
0.214295 -0.037620 0.240154
0.109800 0.013074 0.251122
0.248124 -0.066709 0.213106
0.224875 -0.036764 0.213881
0.236607 -0.051657 0.213406
0.228392 -0.038222 0.232614
0.218453 -0.036056 0.231007
0.176746 0.007430 0.255676
0.065703 0.012193 0.214082
0.059678 -0.001436 0.302703
0.135631 -0.033782 0.263201
0.219429 0.011888 0.254802
0.075941 -0.027815 0.310877
0.162548 -0.054240 0.270747
0.142546 0.006527 0.261377
0.074904 -0.055904 0.389809
0.101610 -0.039644 0.260209
0.068038 0.012198 0.214014
0.069282 -0.048260 0.326622
0.219808 -0.039651 0.251755
0.218915 0.006474 0.219268
0.212591 -0.034817 0.244676
0.217139 -0.034846 0.223239
0.253992 -0.056397 0.211647
0.056446 0.011777 0.213761
0.165862 -0.057937 0.274219
0.161806 -0.049737 0.264204
0.057113 0.002434 0.304269
0.107961 0.012954 0.250907
0.109357 0.012534 0.250201
0.221877 -0.036605 0.242654
0.121279 -0.033751 0.263041
0.109152 -0.034289 0.264308
0.170786 0.012416 0.253799
0.087185 -0.071810 0.385535
0.144791 -0.042689 0.277714
-0.037758 0.019392 0.120770
-0.019715 0.008582 0.118345
0.011363 0.028370 0.149578
-0.100099 -0.064597 0.275257
0.090482 0.011926 0.249060
0.221279 -0.049257 0.246032
0.252602 -0.056159 0.211916
0.092223 0.013509 0.222777
0.073800 0.015327 0.315911
0.114872 -0.033279 0.260980
0.238415 -0.063632 0.218826
0.250708 -0.055864 0.216670
0.240100 -0.067114 0.225721
0.249194 -0.067132 0.216331
0.219113 -0.032674 0.219847
0.094426 0.014054 0.236253
0.067586 0.011934 0.249043
0.088654 0.012041 0.245503
0.087973 0.011852 0.232808
0.078813 -0.044055 0.321122
0.057548 0.013416 0.252654
0.055736 0.013153 0.251992
0.106111 -0.032780 0.261809
0.076880 -0.033490 0.311195
0.078573 -0.045821 0.324584
0.093222 0.012254 0.253083
0.162774 0.008784 0.264480
0.162902 -0.032839 0.263478
0.196906 -0.069228 0.293261
0.150293 -0.058807 0.297480
0.172939 0.007431 0.254476
0.163970 0.008200 0.263949
0.120959 -0.041563 0.272012
0.196522 -0.042865 0.264788
0.068769 -0.053343 0.326476
0.061844 0.013982 0.310273
0.048788 0.013061 0.304381
0.159712 -0.024924 0.252518
0.171585 0.007299 0.254207
0.035641 0.013064 0.264153
0.063461 -0.000694 0.304893
0.075840 -0.045213 0.317415
0.120931 -0.030635 0.263045
0.075669 -0.048333 0.334523
0.170298 -0.072111 0.301594
0.214016 -0.035247 0.225921
0.035718 0.013949 0.232460
0.035680 0.013793 0.239254
0.126760 -0.033753 0.262087
0.220698 -0.037856 0.246381
0.205440 -0.022837 0.224638
0.221098 -0.011946 0.252565
0.062637 0.015357 0.320650
0.072108 -0.039046 0.308177
0.058174 0.011186 0.291376
0.073215 -0.042698 0.312850
0.073835 0.015410 0.318214
0.212653 -0.055615 0.226055
0.165214 -0.033756 0.262244
0.171332 -0.040504 0.253580
0.075388 -0.075824 0.427663
0.074424 -0.071624 0.389497
0.072141 -0.080325 0.414977
0.075069 -0.030265 0.313649
0.155595 -0.036621 0.267536
0.089742 0.012592 0.223560
0.079439 -0.031379 0.309521
0.083156 0.012498 0.253445
0.080195 -0.034531 0.319281
0.077010 -0.039340 0.305352
0.074414 -0.031130 0.310680
0.087839 -0.026786 0.249892
0.074509 -0.032030 0.313320
0.076736 -0.011302 0.310530
0.078560 -0.040007 0.311219
0.067978 -0.019359 0.310476
0.072680 -0.032178 0.310305
0.070762 -0.010179 0.303545
0.080507 -0.033978 0.324440
0.077558 0.003038 0.295287
0.064214 -0.026871 0.313742
0.089225 0.012360 0.228927
0.085953 0.011402 0.234416
0.217454 -0.037081 0.258994
0.142901 -0.033110 0.261355
0.067396 0.012082 0.213981
0.068336 -0.050036 0.319894
0.066141 0.013357 0.216135
0.163755 0.009820 0.265678
0.129088 -0.036349 0.265900
0.162574 -0.042655 0.262442
0.076504 -0.012467 0.309485
0.163266 -0.048712 0.271236
0.087201 0.011753 0.230011
0.073052 -0.040236 0.308264
0.064391 -0.021729 0.310175
0.128859 -0.034672 0.265288
0.073668 -0.034315 0.312161
0.164903 -0.051344 0.276471
0.083236 0.019098 0.345209
0.064442 -0.021764 0.310488
0.158742 -0.048583 0.262783
0.070687 -0.048237 0.332502
0.073932 0.012242 0.214000
0.084717 0.012712 0.214281
0.076005 -0.030403 0.306409
0.071135 -0.031789 0.304127
0.084289 0.012048 0.252576
0.072890 0.011943 0.213745
0.121221 -0.037109 0.266990
0.242170 -0.050437 0.217723
0.231221 -0.052282 0.228133
0.257864 -0.054730 0.241254
0.243250 -0.033156 0.224376
0.219492 -0.041717 0.222924
0.074646 0.014776 0.315607
0.075197 -0.049150 0.338513
0.077879 0.009978 0.255708
0.226621 -0.040774 0.234989
0.063143 -0.037177 0.302139
0.071457 -0.035563 0.320989
0.219268 -0.038743 0.239552
0.063934 0.011896 0.213852
0.076050 0.012071 0.213859
0.062816 -0.027758 0.345167
0.108596 -0.036556 0.267554
0.074449 -0.039016 0.307181
0.120678 -0.036959 0.267897
0.075496 -0.033634 0.310222
0.085904 -0.046601 0.326226
0.061684 -0.039125 0.322145
0.072357 0.011755 0.213501
0.070235 0.011896 0.213719
0.073336 0.012197 0.213979
0.062515 0.012365 0.214392
0.091684 0.013320 0.233311
0.072412 -0.033609 0.320402
0.219652 -0.038272 0.236111
0.235989 -0.054206 0.248158
0.218646 0.010539 0.252115
0.268508 -0.037808 0.251387
0.234326 -0.025807 0.223700
0.224125 -0.021239 0.246301
0.222177 -0.015491 0.238738
0.217646 -0.017296 0.247242
0.216181 0.011540 0.257892
0.220400 -0.048590 0.227113
0.252309 -0.052656 0.204906
0.280080 -0.029556 0.251363
0.215420 -0.031930 0.251143
0.247058 -0.050367 0.204142
0.238664 -0.048721 0.217985
0.237690 -0.044157 0.239542
0.255346 -0.054684 0.213319
0.136647 0.013959 0.252106
0.217069 -0.012330 0.223595
0.255592 -0.059056 0.214071
0.217786 -0.033358 0.244980
0.117231 0.006491 0.260120
0.220600 -0.037910 0.223616
0.221231 -0.021414 0.223415
0.071241 -0.115453 0.555066
0.009981 0.037711 0.216436
0.003930 0.020558 0.053963
0.089244 -0.055817 0.247262
0.069383 -0.034430 0.332698
0.022035 0.016128 0.174836
-0.010124 -0.141287 0.537811
-0.134611 -0.123331 0.547275
0.067343 -0.128119 0.361226
0.161502 -0.077447 0.320379
0.066045 -0.089488 0.618329
0.076566 -0.089281 0.336152
-0.280371 -0.142530 1.340806
0.130459 -0.039822 0.288804
0.073793 -0.099402 0.322933
0.036888 -0.046580 0.436420
0.058429 -0.058953 0.366181
-0.070493 -0.134263 0.519343
-0.031352 -0.017655 0.084278
0.080203 -0.079614 0.348844
0.085791 -0.162773 0.521429
0.069797 -0.058026 0.361712
0.129608 0.062119 0.354741
0.071702 0.010247 0.247098
0.020886 0.017212 0.264211
-0.114839 -0.118632 0.523884
-0.257298 -2.005108 10.019927
-0.085229 -0.119494 0.434371
0.135835 -0.071243 0.274340
0.115649 -0.060074 0.285113
-0.099255 -0.069959 0.502369
-0.165961 -0.077461 0.365584
0.116153 -0.077222 0.483799
-0.133131 -0.105474 0.478336
0.047568 -0.085026 0.368331
-0.111345 -0.151230 0.658004
-0.090226 -0.051835 0.531976
0.075670 -0.064567 0.286879
0.038359 -0.080747 0.305944
-0.014957 -0.148299 0.636300
-0.031867 0.008354 0.101990
-0.467336 -0.384965 2.621751
0.099295 -0.064532 0.249593
0.033276 0.021141 0.259558
0.063504 0.001606 0.302901
-0.049977 0.014451 0.163116
-0.050068 -0.095748 0.405593
-0.013262 -0.004433 0.329767
-0.110420 -0.080018 0.517947
-0.068152 -0.035839 0.325917
0.035281 -0.045210 0.433221
-0.252404 -0.168822 0.907457
-0.034089 0.008396 0.258340
-0.115008 -0.164521 0.704401
-0.058919 0.015646 0.115503
-0.046755 -0.014012 0.151289
-0.041189 0.002275 0.205828
0.128433 -0.064069 0.280010
0.122703 -0.039868 0.254118
-0.032634 0.004263 0.103638
0.074216 -0.091877 0.272580
0.098728 -0.070837 0.267556
0.069716 -0.060426 0.363939
0.060145 -0.069933 0.362620
0.085731 -0.073979 0.318816
0.112930 -0.072909 0.282328
-0.033324 -0.029297 0.167303
-0.046863 0.012187 0.214255
0.047203 -0.088562 0.286888
-0.098724 -0.046030 0.217286
-0.016188 -0.147677 0.640855
-0.033422 0.008066 0.194326
0.068297 -0.082631 0.517868
-0.151821 -0.053192 0.321144
-0.164606 -0.176803 0.755113
-0.054145 -0.070943 0.279830
0.069442 -0.061580 0.492249
0.093058 -0.030726 0.255975
0.135165 -0.035921 0.266284
0.107524 -0.046458 0.271345
-0.143719 -0.090629 0.506498
0.055777 -0.049775 0.402442
-0.118615 -0.074135 0.499056
-0.108538 -0.076916 0.502834
0.077361 -0.083938 0.308853
0.068203 -0.068685 0.351262
0.063952 -0.087405 0.334816
-0.080369 -0.174028 0.459539
0.049800 -0.146596 0.603329
-0.060636 -0.083264 0.322607
-0.034469 0.009122 0.186304
0.037928 -0.060490 0.275260
-0.303148 -0.320594 1.370509
0.066243 -0.079288 0.347342
0.061883 -0.083731 0.358243
0.051490 -0.067467 0.314105
0.060626 -0.094748 0.316397
-0.098591 -0.154164 0.595286
0.010242 0.016944 0.243753
0.037534 -0.112076 0.301961
-0.002093 -0.149897 0.561575
-0.369790 0.052164 0.719278
0.080447 -0.146953 0.559027
0.041120 -0.103419 0.402411
0.066213 -0.125773 0.347367
0.071905 -0.106796 0.307873
-0.014240 -0.149524 0.636530
0.080679 -0.110015 0.282149
-0.126340 -0.142594 0.544411
-0.165356 -0.233616 0.995119
-0.020928 0.001849 0.323552
-0.143614 -1.294375 6.677121
-0.044278 -0.035156 0.117115
0.077176 0.011701 0.294218
0.126638 -0.060194 0.270147
0.141743 -0.060010 0.284161
0.064055 -0.072683 0.368207
0.068785 -0.071012 0.356660
0.097455 0.010672 0.205300
0.128556 -0.061263 0.273954
0.139709 -0.059794 0.282150
0.061160 -0.106077 0.368396
0.115205 -0.030337 0.235520
0.037157 -0.089915 0.316704
0.105775 -0.065544 0.277324
0.114425 -0.058719 0.280255
0.059790 -0.076441 0.384921
0.036004 -0.086110 0.305581
0.144310 -0.058783 0.261689
0.064065 -0.090862 0.332966
0.048332 -0.078474 0.303969
-0.208428 -0.241722 0.917354
-0.027867 -0.159911 0.497834
-0.037908 -0.022629 0.098596
0.119260 -0.062906 0.278928
0.039648 -0.071071 0.352446
0.052663 -0.073623 0.371125
0.112338 -0.046258 0.272736
0.107855 -0.044022 0.278362
-0.034877 0.009217 0.202956
0.035748 -0.096025 0.296590
0.141987 -0.067994 0.281217
0.069835 -0.088855 0.506790
0.073818 -0.078317 0.333019
-0.055639 -0.047449 0.295345
-0.066956 -0.144862 0.383688
0.062694 0.001977 0.301994
-0.178788 -0.089183 0.395348
0.065505 -0.080271 0.342692
-0.072188 -0.006437 0.276528
-0.057809 -0.112792 0.465810
0.033983 -0.053697 0.313559
-0.037583 0.011627 0.099124
-0.031931 0.014387 0.101732
-0.034929 0.019328 0.177461
-0.252193 -0.143639 0.926295
-0.083411 -0.127705 0.505473
0.099468 0.009116 0.267011
0.060784 -0.019208 0.305872
0.079903 -0.078613 0.409676
-1.493412 -1.091869 7.115658
-0.029784 0.005926 0.175936
-0.118213 0.036323 0.293376
-0.039494 0.005962 0.103529
0.122379 -0.065083 0.250979
0.030051 0.039970 0.222339
0.103854 -0.058612 0.255421
-0.000431 0.016172 0.062593
0.052158 -0.157250 0.602867
-0.105143 0.030516 0.276195
-0.124163 -0.145004 0.561472
-0.148677 -0.135580 0.578024
0.101255 0.048571 0.261270
0.072012 -0.071005 0.322528
0.033840 0.017577 0.069340
0.078140 -0.081064 0.491603
0.052789 -0.122432 0.490025
-0.003164 0.016498 0.054044
0.009712 0.015781 0.057123
-0.010060 0.015940 0.056883
0.259187 -0.401201 1.284339
0.094567 -0.051787 0.259802
-0.025170 0.016638 0.058806
0.150194 -0.064076 0.272686
-0.010500 0.016966 0.059905
0.123591 -0.060897 0.274878
0.077600 -0.078129 0.305643
0.045799 -0.092658 0.383290
-0.225089 -0.238173 1.017354
-0.010334 0.016641 0.058756
-0.003223 0.017165 0.056014
0.138080 0.066925 0.302498
0.072849 -0.085273 0.326218
-0.033291 0.013605 0.271490
-0.033825 0.007270 0.198777
0.063361 -0.032136 0.312270
-0.099591 -0.042824 0.277328
-0.018837 0.016786 0.047445
-0.018853 0.016811 0.047485
0.009542 0.015650 0.056574
0.008585 0.016707 0.050576
-0.024959 0.016258 0.057590
-0.000353 0.016396 0.053357
0.093013 -0.034938 0.256554
0.035266 -0.076483 0.302281
-0.121849 -0.091431 0.571737
-0.120205 -0.068466 0.535420
-0.027697 -0.013487 0.077189
-0.038762 0.005795 0.102045
-0.032664 0.014994 0.103155
0.114340 -0.059686 0.284069
0.076052 -0.066994 0.339570
0.057912 -0.096449 0.336916
0.064655 -0.087819 0.338690
-0.013984 -0.160138 0.630705
-0.035783 0.016024 0.191689
-0.253952 -0.192942 0.914395
0.038241 0.015895 0.207427
0.062068 -0.019287 0.344814
0.058646 -0.082010 0.357717
0.074875 -0.061141 0.325277
-0.066390 -0.094062 0.350471
-0.037395 0.010571 0.191349
-0.159630 -0.144737 0.830638
0.003886 0.018546 0.104789
-0.092205 0.013784 0.304554
0.066215 -0.089524 0.299999
0.140662 0.068045 0.315289
0.092104 -0.039460 0.253263
-0.018139 -0.000245 0.288854
0.066627 -0.071862 0.386730
0.068823 -0.066429 0.358130
0.038496 -0.042986 0.344458
0.072468 -0.070691 0.261582
0.103563 -0.112082 0.284194
0.070579 -0.082039 0.318424
0.058992 -0.046274 0.378710
0.081797 -0.048074 0.362007
0.065946 -0.089057 0.296382
0.118452 -0.034417 0.243853
-0.014642 -0.151258 0.646128
0.076135 -0.078047 0.302997
0.093310 -0.058327 0.311851
0.119461 -0.035181 0.265264
0.064354 -0.122070 0.337866
0.073678 -0.109110 0.313999
-0.047741 -0.030338 0.127221
0.050956 -0.139146 0.401509
0.004134 0.015890 0.054418
0.101548 -0.048884 0.271544
0.025695 0.013040 0.077846
0.085884 -0.105433 0.310992
-0.007111 -0.041925 0.423156
-0.055093 -0.037498 0.150038
-0.073235 -0.114758 0.392724
0.075986 -0.058544 0.322068
0.078311 -0.040985 0.307862
0.004464 0.016729 0.056828
-0.034856 0.001488 0.098917
0.100286 -0.039630 0.268972
0.153856 -0.064404 0.278350
-0.070908 -0.103193 0.386556
-0.034037 0.010439 0.098776
0.083347 0.195372 0.640700
0.126692 -0.062624 0.278507
0.070892 -0.041895 0.319233
0.077687 -0.063842 0.346746
-0.099229 -0.048053 0.477756
0.062529 -0.101764 0.395906
0.094525 0.009222 0.189961
-0.097053 0.000102 0.279528
0.080334 -0.052611 0.334884
-0.036203 0.010087 0.115345
-0.175325 -0.061765 0.370050
0.099274 0.047890 0.261495
0.068707 -0.137475 0.479577
0.040311 -0.098273 0.322620
-0.046108 -0.086713 0.332247
0.080852 -0.050966 0.287096
0.076165 -0.075882 0.479065
-0.038736 0.010419 0.184638
-0.034313 0.017467 0.126536
0.110166 -0.071588 0.276649
0.159918 -0.063956 0.342404
0.085131 -0.061733 0.327391
-0.040680 -0.027890 0.107973
-0.036897 0.008760 0.267053
0.078420 -0.056540 0.347007
0.118319 -0.047394 0.281360
0.074739 -0.046141 0.266848
0.105214 -0.046491 0.267863
-0.017750 0.016797 0.047883
-0.018662 0.016583 0.046606
-0.220608 -0.114511 1.065249
-0.050062 -0.069234 0.256902
0.035937 -0.015663 0.330669
-0.107346 0.017063 0.189088
0.050939 -0.093633 0.357732
0.037554 -0.113567 0.305014
0.064470 -0.076883 0.343672
0.076916 -0.061683 0.279300
0.113680 -0.033608 0.263029
0.121186 -0.038196 0.267719
0.217675 -0.059155 0.251386
0.120106 -0.031558 0.246560
0.036647 -0.098318 0.302617
0.062962 -0.080842 0.365940
0.132843 -0.070125 0.272544
0.118121 -0.058478 0.285930
-0.220436 -0.135578 1.050951
0.058723 -0.092976 0.340905
-0.157529 0.008585 0.279828
-0.012344 0.015641 0.075727
0.076934 -0.068056 0.313639
0.102331 0.014104 0.211743
0.089660 0.008916 0.178549
0.119255 -0.039011 0.248624
-0.029455 0.016279 0.079276
0.086427 0.008272 0.182776
0.016179 0.015713 0.076072
-0.002452 0.017427 0.086102
0.014010 0.016473 0.247065
0.020572 0.015921 0.108844
-0.031363 0.016247 0.058107
-0.220078 -0.143970 0.902722
-0.105292 -0.057192 0.632868
-0.043736 -0.023181 0.124317
-0.017647 0.017118 0.049077
0.048454 -0.078891 0.448561
0.061650 -0.083729 0.359242
0.061835 -0.072594 0.364915
0.073021 -0.112436 0.310016
0.054977 -0.146491 0.448338
-0.109400 -0.075860 0.501667
0.033875 -0.024574 0.164545
0.054567 -0.088604 0.331788
0.088829 0.012242 0.229676
0.077413 0.010748 0.249605
0.120055 -0.030546 0.262570
-0.243471 -0.117432 1.013013
-0.039349 0.001186 0.285475
0.077875 -0.089291 0.297968
-0.030314 0.015561 0.102810
0.116751 0.056094 0.281985
0.112744 -0.066004 0.279197
-0.046323 -0.057077 0.245388
